ncols         401
nrows         27
xllcorner     1122100.2005
yllcorner     889743.650513
cellsize      24
NODATA_value  -9999
-9999 -9999 1793.193 1792.643 1792.451 1792.428 1792.314 1792.282 1791.784 1791.927 1792.096 1792.353 1792.11 1791.953 1791.282 1790.388 1789.355 1788.16 1786.803 1785.307 1783.716 1782.32 1780.772 1779.665 1778.7 1778.138 1777.719 1776.634 1777.801 1773.111 1772.187 1771.374 1770.912 1769.869 1768.542 1767.606 1766.692 1765.816 1764.313 1762.123 1761.245 1761.75 1762.835 1764.087 1765.361 1765.924 1766.412 1767.608 1769.441 1771.857 1774.713 1776.731 1778.083 1778.72 1779.123 1779.093 1778.462 1777.647 1776.707 1775.014 1774.243 1772.769 1771.427 1769.962 1768.56 1767.089 1765.628 1765.078 1765.229 1764.968 1764.653 1764.096 1763.619 1763.073 1762.302 1761.846 1761.991 1761.438 1760.477 1759.915 1758.983 1757.901 1756.513 1755.413 1753.916 1752.381 1751.027 1749.522 1747.871 1746.211 1744.476 1742.688 1740.802 1739.722 1738.913 1737.69 1736.759 1734.98 1733.403 1731.56 1729.654 1726.94 1724.706 1722.174 1719.425 1716.014 1714.02 1711.724 1709.516 1707.38 1705.156 1702.914 1700.982 1698.767 1696.256 1693.044 1689.517 1687.239 1684.421 1682.169 1680.091 1677.267 1674.269 1672.067 1669.198 1666.046 1663.3 1657.183 1650.742 1644.519 1640.709 1636.726 1634.876 1631.641 1629.553 1627.746 1626.217 1624.692 1623.264 1621.567 1620.231 1617.64 1615.913 1614.032 1611.994 1610.493 1607.191 1597.037 1588.271 1579.889 1578.429 1580.621 1572.589 1567.294 1566.551 1560.908 1557.618 1557.418 1556.583 1554.691 1550.898 1552.718 1564.814 1567.392 1574.574 1581.152 1585.67 1590.115 1597.179 1607.355 1614.905 1618.334 1623.538 1628.192 1632.761 1634.995 1636.075 1634.01 1636.665 1639.131 1643.414 1645.393 1651.698 1656.482 1661.192 1663.999 1668.115 1675.232 1680.839 1687.715 1692.994 1697.194 1700.962 1704.654 1708.262 1710.823 1713.658 1715.736 1717.345 1719.163 1721.349 1722.626 1723.792 1724.965 1726.12 1726.739 1727.818 1728.049 1729.023 1729.545 1729.793 1730.114 1729.605 1729.309 1728.962 1729.066 1727.233 1726.524 1725.763 1724.716 1723.799 1721.9 1720.898 1718.932 1717.442 1716.38 1713.823 1704.902 1696.217 1685.641 1676.438 1665.509 1656.068 1650.471 1645.573 1641.038 1638.307 1633.964 1630.24 1626.127 1623.801 1620.293 1618.935 1616.63 1614.566 1612.62 1611.115 1610.066 1608.897 1607.204 1605.368 1603.794 1602.188 1599.608 1598.684 1596.28 1594.191 1592.013 1590.487 1587.234 1585.651 1582.445 1581.021 1579.08 1575.382 1573.68 1571.18 1567.266 1564.016 1560.195 1557.885 1554.015 1551.499 1546.243 1543.342 1540.009 1536.321 1532.744 1528.422 1523.357 1519.165 1515.422 1510.766 1507.646 1505.072 1502.017 1498.977 1493.779 1490.134 1482.941 1474.953 1465.25 1455.896 1455.203 1451.631 1448.349 1445.09 1441.77 1438.546 1435.727 1434.054 1432.54 1430.067 1422.351 1422.323 1423.045 1420.406 1420.044 1418.158 1416.101 1413.955 1411.496 1409.812 1407.662 1405.681 1403.967 1401.888 1399.875 1398.015 1396.994 1395.544 1394.445 1393.213 1392.396 1391.458 1390.038 1389.303 1388.18 1386.877 1386.507 1385.92 1386.038 1385.221 1384.16 1383.633 1383.328 1383.328 1383.328 1385.149 1383.328 1383.502 1384.207 1385.243 1385.958 1385.745 1383.598 1383.973 1383.984 1383.724 1382.955 1382.577 1382.68 1382.479 1381.701 1382.021 1382.886 1382.343 1383.626 1383.757 1382.324 1383.06 1382.304 1383.169 1382.43 1382.758 1383.021 1384.491 1384.537 1384.592 1384.884 1385.117 1384.539 1383.627 1383.256 1383.256 1384.016 1383.49 1383.255 1384.702 1386.918 1389.259 1390.578 1390.805 1392.381 1394.478 1395.547 1395.139 1394.352 1394.89 1395.259 1395.783 1395.716 1395.574 1395.979 1396.908 1397.971 1398.378 1398.722 -9999 -9999 -9999
-9999 1794.171 1793.381 1793.116 1792.722 1792.729 1792.522 1791.833 1792.043 1791.971 1792.124 1792.372 1792.214 1792.274 1791.665 1790.965 1789.802 1788.345 1786.462 1784.992 1783.456 1782.026 1781.079 1779.996 1779.179 1778.555 1777.994 1777.57 1777.777 1774.032 1772.59 1771.346 1771.094 1769.82 1768.739 1767.714 1766.747 1765.625 1764.494 1762.404 1760.218 1760.974 1762.9 1764.497 1765.513 1766.367 1766.77 1767.832 1769.719 1772.439 1774.974 1776.946 1778.161 1778.479 1778.827 1778.648 1777.85 1776.932 1775.716 1774.175 1773.02 1771.864 1770.219 1768.376 1766.727 1764.661 1763.713 1763.232 1763.087 1762.635 1762.045 1761.401 1760.486 1759.426 1758.471 1758.299 1758.495 1758.545 1757.749 1757.138 1755.899 1755.212 1753.77 1752.454 1751.323 1749.901 1748.62 1746.703 1745.059 1743.21 1741.121 1739.225 1737.146 1735.762 1735.146 1733.55 1732.418 1731.453 1729.918 1728.004 1726.119 1724.172 1722.002 1719.6 1716.51 1713.791 1711.443 1708.89 1706.634 1704.361 1702.578 1700.367 1698.327 1696.191 1694.057 1691.908 1687.072 1683.896 1682.344 1679.55 1677.037 1674.718 1672.265 1669.985 1667.734 1663.636 1661.357 1656.173 1648.685 1643.423 1639.853 1635.001 1633.015 1630.614 1628.442 1626.404 1624.08 1623.495 1621.663 1620.14 1617.933 1616.805 1614.485 1613.048 1610.973 1608.034 1599.073 1586.667 1578.038 1568.195 1564.298 1563.03 1559.115 1558.875 1558.057 1558.584 1558.475 1557.097 1554.677 1552.271 1554.262 1558.693 1570.434 1574.039 1582.631 1587.189 1590.72 1595.429 1605.269 1614.716 1620.655 1625.674 1628.979 1632.458 1636.676 1638.463 1639.102 1639.44 1641.275 1643.785 1648.079 1652.794 1656.85 1662.469 1667.647 1672.523 1677.024 1683.404 1688.422 1693.52 1698.023 1701.856 1704.91 1708.722 1711.952 1714.277 1716.904 1718.623 1720.746 1722.998 1724.448 1726.332 1727.742 1728.457 1730.284 1731.283 1732.518 1731.957 1734.143 1734.265 1734.318 1734.036 1733.85 1733.479 1733.305 1732.707 1731.089 1729.701 1729.326 1728.244 1726.673 1725.006 1723.491 1720.923 1718.931 1717.872 1714.807 1710.917 1704.372 1696.295 1684.126 1672.009 1660.895 1654.938 1649.115 1645.797 1642.985 1639.074 1633.853 1629.903 1625.675 1622.601 1619.671 1618.547 1616.257 1614.298 1613.033 1611.542 1610.232 1608.696 1606.738 1604.676 1603.333 1602.595 1600.458 1598.097 1596.048 1594.23 1591.289 1588.995 1587.049 1584.204 1581.725 1578.967 1576.546 1574.252 1571.543 1568.61 1565.263 1561.589 1558.109 1554.589 1552.103 1548.728 1545.435 1542.11 1538.22 1533.359 1528.889 1524.699 1521.039 1516.772 1512.227 1508.939 1506.132 1503.477 1499.985 1496.44 1491.81 1484.946 1475.756 1462.884 1461.315 1456.981 1453.753 1449.343 1446.446 1443.018 1440.721 1438.5 1436.3 1433.577 1431.654 1428.526 1422.323 1423.065 1423.207 1419.713 1418.049 1416.535 1415.301 1412.438 1410.272 1408.308 1407.299 1405.958 1404.073 1400.551 1401.084 1397.968 1396.418 1394.723 1393.936 1392.629 1391.027 1389.874 1388.366 1387.707 1387.048 1386.833 1386.853 1386.296 1385.567 1384.729 1383.847 1383.361 1384 1383.328 1383.66 1383.328 1383.45 1383.819 1385.884 1386.241 1385.751 1385.485 1383.999 1384.21 1384.462 1384.048 1382.577 1383.322 1383.596 1383.314 1382.505 1383.487 1383.89 1382.343 1383.606 1383.233 1384.087 1382.439 1382.939 1383.165 1383.271 1383.4 1383.818 1383.856 1384.443 1384.449 1384.464 1383.377 1383.498 1383.256 1383.501 1383.41 1383.256 1383.313 1385.554 1387.07 1388.937 1390.11 1390.547 1391.9 1393.609 1393.922 1392.899 1392.879 1393.811 1395.486 1395.759 1395.411 1395.679 1396.028 1396.997 1397.861 1398.013 1398.714 -9999 -9999 -9999
1795.779 1795.07 1794.232 1793.515 1792.924 1792.929 1792.958 1792.321 1792.273 1792.336 1792.5 1792.399 1792.377 1792.628 1792.366 1791.194 1789.892 1788.266 1786.485 1785.548 1784.494 1782.802 1781.417 1780.61 1779.49 1779.004 1778.263 1778.303 1777.414 1773.805 1772.843 1771.571 1770.838 1769.582 1768.878 1767.993 1766.919 1765.621 1763.704 1760.952 1758.931 1760.348 1763.121 1764.769 1765.928 1766.66 1767.257 1768.064 1770.205 1772.629 1775.264 1776.903 1777.929 1778.411 1778.446 1778.196 1777.539 1776.527 1775.406 1773.807 1772.51 1771.205 1769.271 1767.316 1765.045 1763.506 1762.102 1761.797 1761.412 1760.912 1759.368 1758.506 1757.349 1756.437 1755.8 1755.373 1754.938 1755.18 1754.808 1754.015 1753.066 1752.162 1750.962 1749.561 1748.427 1746.864 1745.326 1743.884 1742.224 1740.479 1738.765 1736.907 1734.103 1732.572 1731.404 1730.096 1729.275 1727.761 1726.041 1724.887 1723.16 1721.553 1719.549 1716.462 1714.011 1711.967 1709.026 1706.591 1703.411 1701.777 1700.066 1698.175 1696.505 1694.543 1691.651 1688.68 1684.567 1681.472 1679.652 1677.097 1674.447 1672.662 1670.519 1667.726 1665.791 1661.662 1658.09 1653.073 1646.903 1640.989 1637.659 1634.683 1631.37 1629.605 1627.263 1625.344 1623.237 1622.104 1620.522 1618.707 1617.156 1615.245 1613.077 1611.14 1608.683 1606.246 1594.286 1579.733 1567.601 1562.721 1561.931 1560.38 1557.982 1556.556 1556.556 1555.547 1554.865 1554.865 1554.084 1553.537 1560.237 1565.919 1573.909 1579.322 1586.648 1591.117 1595.245 1601.435 1610.704 1618.007 1623.333 1628.06 1632.668 1635.306 1638.874 1641.641 1641.866 1643.574 1645.14 1649.232 1653.746 1658.938 1662.943 1667.981 1674.046 1679.008 1683.802 1689.557 1692.913 1696.289 1701.982 1706.12 1709.211 1711.994 1714.806 1717.543 1720.329 1722.349 1724.67 1726.8 1728.692 1730.008 1731.35 1732.775 1733.993 1735.479 1737.095 1737.223 1738.326 1738.618 1738.422 1738.5 1738.266 1737.581 1737.54 1736.906 1735.511 1734.463 1733.247 1731.702 1729.639 1727.946 1726.408 1723.867 1721.411 1719.272 1717.152 1714.594 1711.173 1703.045 1690.531 1675.575 1665.203 1658.523 1653.469 1649.309 1646.532 1643.027 1638.661 1633.71 1629.214 1625.474 1622.345 1619.999 1618.501 1616.171 1614.944 1613.34 1611.391 1609.752 1607.755 1605.959 1605.282 1603.787 1601.923 1600.448 1598.11 1595.226 1592.356 1590.144 1587.596 1585.136 1582.372 1579.493 1576.768 1574.773 1572.229 1569.346 1566.3 1562.287 1559.385 1556.47 1553.775 1550.73 1547.308 1544.077 1539.834 1535.169 1530.143 1526.66 1522.616 1518.943 1514.061 1510.154 1506.529 1503.411 1500.332 1497.318 1492.519 1480.735 1466.654 1465.825 1465.058 1461.685 1454.38 1450.022 1447.012 1445.258 1442.756 1440.239 1437.459 1434.505 1431.772 1430.458 1424.091 1422.61 1423.596 1421.316 1420.261 1419.28 1417.357 1414.758 1410.456 1407.923 1406.361 1404.719 1403.697 1403.306 1400.706 1398.204 1396.587 1394.007 1392.953 1392.404 1390.767 1389.964 1389.063 1387.81 1387.769 1388.305 1387.512 1387.084 1386.392 1385.032 1384.421 1383.813 1385.275 1383.328 1384.191 1383.328 1383.328 1384.301 1385.931 1387.167 1386.481 1385.619 1385.494 1384.663 1385.471 1384.833 1384.158 1384.383 1384.385 1384.49 1384.35 1383.075 1383.205 1383.578 1384.527 1383.233 1384.748 1382.785 1383.563 1383.576 1383.756 1383.399 1383.999 1384.077 1383.977 1384.119 1383.377 1383.568 1383.3 1383.256 1383.479 1383.256 1383.71 1383.256 1385.432 1386.824 1387.666 1389.366 1390.224 1390.949 1392.2 1392.373 1391.016 1391.281 1392.841 1394.575 1395.359 1395.366 1395.91 1396.258 1397.02 1397.887 1398.23 1398.461 -9999 -9999 -9999
1796.111 1795.437 1794.87 1794.115 1793.204 1792.852 1792.768 1792.734 1792.757 1792.488 1792.353 1792.64 1792.746 1793.087 1792.065 1791.201 1789.55 1788.627 1787.038 1786.035 1785.514 1783.872 1782.464 1781.423 1780.569 1779.553 1778.34 1778.726 1776.468 1774.626 1773.354 1772.918 1771.055 1770.098 1769.028 1768.305 1767.328 1765.976 1764.213 1761.499 1758.123 1758.924 1762.757 1764.417 1765.884 1766.763 1767.244 1768.199 1770.582 1772.766 1775.159 1776.923 1778.134 1778.46 1778.06 1777.66 1777.014 1775.932 1774.705 1773.255 1771.622 1770.121 1768.04 1765.633 1763.341 1761.802 1761.4 1759.574 1759.492 1758.625 1757.606 1756.035 1754.94 1754.038 1753.229 1753.003 1752.751 1752.256 1751.765 1750.875 1750.113 1749.216 1747.972 1746.905 1745.4 1743.898 1742.639 1741.185 1739.618 1737.775 1735.887 1733.619 1731.471 1728.892 1728.603 1727.637 1725.672 1724.385 1723.064 1721.393 1719.413 1717.23 1715.491 1712.863 1711.238 1708.805 1706.569 1703.948 1700.654 1698.943 1697.291 1695.95 1693.783 1691.814 1689.108 1686.151 1682.202 1679.204 1676.776 1674.335 1672.46 1669.326 1668.058 1666.059 1663.572 1660.766 1655.779 1650.174 1644.161 1640.468 1636.111 1633.419 1630.709 1628.492 1626.956 1624.939 1623.099 1621.418 1619.615 1617.556 1615.71 1613.536 1610.834 1608.889 1606.615 1603.209 1590.747 1576.662 1563.859 1562.18 1559.292 1558.762 1559.444 1561.157 1562.15 1557.624 1556.975 1556.127 1556.639 1560.107 1565.15 1573.869 1577.778 1583.099 1590.227 1594.815 1599.865 1607.474 1613.273 1620.992 1627.815 1631.694 1634.933 1637.67 1641.214 1643.712 1644.739 1646.338 1648.663 1653.178 1658.526 1664.12 1670.574 1676.051 1680.304 1684.404 1689.963 1693.924 1697.808 1701.906 1705.673 1709.402 1712.766 1715.111 1717.628 1720.895 1723.583 1726.131 1727.659 1729.959 1731.623 1733.232 1734.969 1736.727 1738.367 1740 1741.014 1741.75 1742.116 1742.733 1742.094 1742.346 1741.894 1741.729 1741.106 1740.591 1739.68 1738.534 1737.245 1735.739 1733.595 1730.933 1728.726 1726.507 1723.705 1721.279 1718.509 1716.306 1710.721 1700.573 1688.258 1675.055 1669.085 1665.325 1661.689 1653.443 1649.409 1646.514 1643.577 1639.912 1634.367 1628.709 1625.25 1622.245 1620.316 1618.326 1616.69 1614.981 1612.562 1611.071 1609.34 1607.485 1606.254 1604.24 1602.958 1601.175 1599.502 1596.58 1594.293 1590.995 1588.806 1586.233 1583.609 1580.724 1577.635 1575.512 1572.821 1570.722 1567.761 1563.594 1560.315 1557.943 1554.965 1552.411 1548.491 1544.945 1541.148 1537.293 1532.76 1527.954 1524.338 1520.573 1515.599 1508.201 1502.251 1499.266 1490.921 1488.227 1478.585 1474.345 1473.39 1475.963 1471.697 1465.135 1456.21 1449.506 1448.805 1446.225 1443.38 1441.26 1438.725 1436.704 1434.205 1431.485 1429.12 1422.61 1423.412 1423.936 1420.009 1419.171 1416.74 1413.859 1410.668 1409.444 1407.908 1406.749 1405.858 1402.979 1401.595 1401.837 1400.184 1397.006 1394.166 1391.182 1390.965 1389.799 1390.184 1389.685 1390.141 1390.636 1390.154 1388.823 1386.947 1385.494 1385.197 1384.256 1384.645 1383.328 1384.776 1383.4 1383.52 1385.33 1386.337 1387.314 1387.081 1385.909 1385.496 1384.744 1384.866 1385.28 1384.248 1384.317 1384.872 1385.39 1384.241 1383.874 1383.075 1384.992 1384.953 1384.07 1385.057 1383.26 1383.835 1383.637 1384.083 1383.79 1384.118 1384.304 1384.195 1383.751 1383.377 1383.397 1383.267 1383.256 1383.256 1383.256 1384.15 1383.256 1384.951 1385.91 1386.572 1388.186 1389.616 1390.407 1390.874 1391.151 1389.537 1390.302 1391.316 1392.767 1394.354 1394.944 1395.734 1396.843 1397.243 1397.974 1397.887 1398.481 1398.892 -9999 -9999
1797.211 1796.455 1795.806 1794.82 1794.059 1793.523 1793.122 1793.017 1792.998 1792.69 1792.694 1792.992 1792.945 1792.974 1791.868 1790.891 1789.645 1788.202 1787.365 1786.421 1785.414 1784.024 1783.085 1782.066 1780.626 1780.185 1778.432 1779.184 1777.379 1774.978 1774.668 1772.606 1771.62 1770.427 1769.391 1768.486 1766.998 1766.371 1764.764 1762.638 1757.81 1759.728 1762.905 1764.638 1766.023 1767.427 1767.889 1768.594 1770.318 1772.579 1774.925 1776.697 1777.209 1777.812 1777.439 1777.143 1776.44 1775.018 1773.84 1772.606 1770.751 1769.297 1766.708 1764.449 1761.982 1760.296 1759.503 1757.755 1757.304 1756.032 1754.668 1753.781 1752.419 1751.289 1751.265 1750.51 1749.839 1749.461 1748.526 1747.945 1747.172 1746.156 1745.058 1743.956 1742.495 1741.542 1739.91 1738.747 1736.989 1735.169 1733.207 1731.047 1727.856 1726.456 1724.662 1722.592 1722.279 1720.669 1718.849 1717.758 1716.64 1713.992 1712.14 1710.034 1707.903 1705.691 1703.478 1701.479 1698.133 1696.061 1694.736 1693.014 1691.019 1688.921 1686.065 1683.788 1679.879 1676.872 1674.165 1672.212 1670.044 1667.506 1665.039 1663.343 1662.364 1658.342 1654.111 1647.611 1642.594 1638.307 1635.016 1632.017 1630.153 1627.581 1625.852 1624.553 1622.401 1620.697 1618.828 1617.109 1614.254 1609.67 1609.565 1606.817 1603.839 1600.734 1590.795 1575.86 1563.42 1560.525 1562.475 1563.901 1563.853 1563.051 1561.484 1560.007 1558.518 1557.835 1556.881 1562.143 1571.186 1576.327 1581.941 1586.299 1589.286 1596.621 1604.735 1609.962 1616.833 1623.652 1629.264 1633.51 1637.374 1640.355 1643.235 1645.442 1647.09 1650.47 1653.955 1656.374 1663.129 1668.567 1675.678 1681.028 1686.233 1689.944 1694.557 1698.505 1702.14 1705.843 1709.849 1713.01 1716.279 1718.656 1720.952 1723.667 1726.78 1729.032 1731.532 1733.486 1735.411 1737.204 1738.873 1740.572 1741.996 1743.643 1745.251 1745.405 1745.402 1746.357 1746.083 1745.919 1745.293 1745.014 1744.505 1743.771 1742.478 1741.867 1740.613 1738.97 1736.92 1734.534 1731.831 1728.977 1726.089 1723.001 1720.922 1717.107 1711.092 1700.268 1684.518 1679.681 1678.905 1676.931 1671.773 1663.418 1654.786 1649.639 1645.282 1643.653 1638.145 1634.279 1629.324 1624.475 1622.416 1620.15 1618.057 1616.2 1614.277 1612.435 1610.948 1608.695 1607.705 1605.764 1603.424 1601.665 1599.584 1597.986 1595.528 1592.586 1590.388 1587.966 1584.679 1581.486 1578.337 1575.723 1573.772 1571.191 1568.563 1564.61 1561.724 1558.815 1556.434 1553.651 1550.387 1546.078 1543.096 1538.385 1534.232 1529.744 1525.19 1517.389 1511.955 1512.168 1507.983 1504.955 1499.807 1496.233 1492.116 1488.531 1486.335 1481.378 1473.061 1462.494 1454.838 1451.982 1450.714 1448.157 1445.13 1443.219 1440.679 1438.243 1435.002 1432.186 1430.922 1426.07 1422.653 1424.057 1422.411 1419.423 1417.507 1413.202 1411.819 1410.638 1409.28 1407.587 1405.666 1402.84 1405.174 1404.514 1400.976 1398.597 1394.99 1394.535 1394.372 1392.608 1392.052 1393.398 1392.814 1391.759 1391.05 1389.262 1387.559 1386.169 1385.793 1385.605 1385.204 1383.974 1386.315 1384.468 1384.645 1386.884 1387.416 1387.632 1387.191 1386.682 1385.044 1385.093 1385.108 1384.808 1385.46 1384.248 1385.391 1385.297 1385.177 1384.514 1383.508 1385.377 1385.605 1385.225 1384.949 1385.119 1384.194 1383.75 1384.419 1383.79 1383.838 1384.731 1384.689 1384.689 1383.666 1383.444 1383.593 1383.265 1383.256 1383.708 1383.256 1383.33 1383.42 1384.481 1385.493 1386.873 1388.382 1389.59 1390.04 1390.05 1389.174 1389.149 1389.728 1391.353 1393.302 1394.698 1395.855 1396.928 1397.408 1398.094 1397.983 1398.079 1398.401 1398.839 -9999
1798.153 1797.187 1796.545 1795.559 1794.455 1793.908 1793.571 1793.338 1793.182 1792.908 1792.765 1792.707 1792.689 1792.997 1792.105 1791.027 1790.048 1788.685 1788.148 1787.217 1785.601 1784.383 1783.563 1783.238 1781.945 1780.808 1779.127 1779.64 1777.388 1775.467 1773.681 1773.439 1772.04 1770.424 1769.719 1768.26 1767.139 1765.977 1764.602 1763.514 1757.635 1758.952 1762.491 1764.245 1765.76 1766.959 1767.876 1768.332 1770.084 1772.522 1774.718 1776.253 1777.104 1777.326 1776.515 1776.77 1775.918 1774.038 1773.158 1771.713 1769.81 1767.744 1766.001 1763.412 1760.728 1759.114 1758.015 1756.348 1755.943 1754.108 1752.694 1751.413 1750.052 1749.107 1748.435 1747.73 1747.613 1746.595 1745.931 1744.939 1743.893 1743.02 1741.943 1741.004 1739.723 1738.517 1737.008 1735.908 1734.201 1732.771 1730.726 1728.472 1725.572 1723.157 1721.088 1719.641 1718.157 1717.146 1716.27 1713.867 1712.018 1710.322 1708.104 1705.79 1703.968 1702.029 1699.73 1697.024 1694.216 1692.764 1691.496 1689.976 1687.729 1685.483 1683.299 1680.6 1676.934 1674.58 1672.083 1670.558 1668.442 1664.93 1662.94 1661.055 1660.046 1657.183 1652.364 1645.661 1641.294 1637.009 1635.112 1631.659 1628.558 1626.339 1624.232 1622.782 1621.522 1620.015 1618.33 1616.84 1614.019 1611.343 1607.323 1601.424 1598.79 1596.971 1586.849 1568.328 1561.216 1563.409 1565.006 1566.372 1563.164 1562.95 1561.31 1559.895 1558.99 1559.658 1560.08 1570.258 1578.293 1575.289 1583.977 1589.906 1591.321 1596.654 1606.074 1615.352 1619.893 1625.77 1630.925 1635.173 1638.901 1642.37 1644.798 1647.876 1651.236 1654.732 1658.397 1661.299 1665.961 1673.788 1681.103 1686.234 1690.072 1693.818 1698.087 1702.363 1706.01 1710.339 1713.189 1716.27 1719.368 1722.128 1724.602 1727.186 1730.121 1733.066 1735.057 1736.92 1738.963 1740.7 1742.317 1743.77 1745.286 1746.661 1747.66 1748.718 1748.69 1749.774 1749.699 1749.31 1748.726 1748.1 1747.153 1746.326 1744.848 1743.501 1742.551 1741.378 1739.52 1737.557 1735.337 1731.944 1728.748 1725.236 1723.058 1718.933 1712.943 1700.724 1688.323 1693.719 1694.386 1690.59 1682.791 1671.795 1661.43 1652.681 1647.541 1645.294 1641.724 1637.368 1633.201 1628.333 1624.049 1621.413 1620.119 1617.484 1615.527 1613.904 1611.996 1609.876 1608.67 1606.555 1604.211 1602.455 1600.657 1598.541 1596.001 1593.575 1591.732 1588.584 1585.582 1582.606 1579.413 1576.607 1574.247 1571.542 1568.39 1565.01 1562.108 1558.979 1556.568 1553.781 1550.752 1547.008 1542.965 1539.218 1534.486 1527.879 1522.465 1521.985 1518.795 1514.307 1511.039 1507.19 1503.438 1501.122 1498.368 1494.25 1488.768 1481.305 1472.009 1461.976 1456.102 1456.169 1453.468 1449.733 1446.964 1444.373 1441.931 1438.617 1435.595 1433.733 1431.245 1429.275 1422.653 1423.716 1424.435 1420.519 1415.081 1415.768 1413.565 1411.234 1410.117 1408.13 1406.507 1404.941 1405.478 1405.357 1403.193 1401.142 1398.642 1398.204 1397.189 1394.024 1393.251 1395.013 1394.783 1393.719 1392.419 1390.716 1388.388 1387.046 1386.615 1386.625 1385.9 1383.974 1386.163 1386.436 1385.396 1387.855 1388.234 1387.511 1387.135 1387.134 1386.736 1384.808 1384.808 1385.628 1385.563 1384.539 1385.155 1385.768 1385.662 1384.921 1383.818 1385.671 1386.08 1386.288 1386.046 1385.647 1384.557 1384.268 1384.584 1384.146 1384.604 1384.937 1385.13 1385.417 1384.657 1383.648 1383.354 1383.414 1383.45 1383.278 1383.256 1383.256 1383.256 1383.755 1384.205 1385.387 1387.036 1388.104 1389.229 1389.152 1388.596 1388.915 1389.451 1390.32 1392.196 1394.298 1395.728 1397.289 1397.268 1397.868 1397.694 1398.057 1398.3 1399.083 -9999
1798.85 1797.997 1797.047 1796.338 1795.608 1794.674 1794.342 1793.623 1793.279 1793.353 1793.255 1793.087 1792.57 1792.55 1791.837 1790.957 1790.191 1788.949 1788.176 1786.968 1785.78 1785.485 1784.144 1784.012 1783.294 1780.997 1779.127 1780.047 1777.386 1776.858 1775.703 1772.728 1772.091 1770.919 1769.646 1768.375 1767.11 1765.742 1764.61 1763.393 1757.244 1755.596 1761.598 1764.055 1765.831 1766.823 1768.598 1768.556 1769.626 1772.078 1773.732 1775.337 1776.263 1776.426 1775.813 1775.789 1774.727 1773.323 1772.07 1770.193 1768.783 1766.551 1764.518 1762.26 1759.742 1758.217 1756.403 1755.379 1753.728 1752.675 1751.145 1749.554 1747.655 1746.62 1745.747 1745.886 1744.803 1743.806 1743.327 1742.568 1741.318 1739.785 1738.927 1737.949 1737.209 1736.001 1734.643 1733.582 1731.814 1730.218 1728.078 1726.228 1722.875 1719.754 1717.546 1716.34 1714.788 1713.408 1712.173 1710.164 1708.71 1706.588 1704.398 1701.497 1700.141 1698.032 1696.143 1693.656 1692.159 1689.923 1688.717 1687.593 1684.96 1682.895 1680.514 1677.51 1674.584 1672.027 1670.224 1668.439 1665.999 1662.998 1660.964 1659.837 1657.81 1655.085 1649.442 1644.459 1639.163 1635.742 1632.772 1629.344 1626.745 1624.641 1623.059 1621.67 1620.143 1618.734 1617.016 1615.039 1612.868 1610.502 1607.636 1604.426 1601.5 1591.571 1576.418 1562.275 1563.384 1564.857 1566.465 1565.763 1563.611 1562.478 1564.156 1567.99 1567.359 1568.849 1577.243 1581.901 1583.369 1582.523 1582.574 1586.412 1593.366 1595.943 1604.781 1617.266 1622.519 1627.428 1632.218 1636.48 1640.627 1644.155 1647.593 1650.548 1654.721 1659.948 1663.479 1667.304 1671.067 1678.071 1683.893 1689.359 1693.243 1697.863 1701.69 1705.931 1709.692 1712.839 1716.583 1719.769 1722.883 1725.66 1728.161 1731.163 1733.937 1736.549 1738.418 1740.408 1742.353 1744.002 1745.672 1747.241 1748.752 1749.953 1751.351 1752.466 1753.166 1753.864 1753.451 1753.004 1752.48 1751.673 1750.169 1749.091 1747.253 1745.699 1744.01 1743.199 1741.643 1739.534 1737.535 1734.837 1731.625 1727.789 1725.173 1721.436 1714.082 1703.293 1701.436 1707.211 1707.068 1700.832 1691.301 1680.429 1668.717 1657.714 1651.322 1646.652 1643.752 1640.161 1636.347 1633.18 1627.037 1623.306 1620.632 1620.051 1617.25 1615.368 1612.851 1610.651 1609.132 1607.199 1605.394 1603.639 1600.946 1599.084 1596.56 1594.283 1591.858 1589.229 1586.376 1583.325 1579.775 1576.597 1573.734 1570.55 1568.188 1565.284 1561.965 1558.492 1555.236 1552.362 1549.901 1544.893 1539.728 1534.987 1530.414 1530.842 1528.348 1524.498 1520.4 1516.673 1512.417 1508.976 1506.032 1502.982 1500.342 1496.531 1491.476 1481.52 1471.835 1462.474 1460.385 1458.847 1454.501 1450.306 1448.755 1447.09 1443.169 1439.861 1436.696 1433.943 1431.927 1430.284 1426.159 1422.775 1424.432 1424.11 1419.484 1418.23 1415.154 1413.439 1410.609 1408.736 1406.927 1406.057 1406.65 1406.547 1405.354 1403.741 1402.042 1400.556 1398.639 1394.993 1395.483 1395.734 1395.49 1394.865 1393.287 1390.456 1388.201 1387.21 1386.828 1386.539 1387.135 1384.159 1386.639 1387.855 1387.729 1387.631 1388.223 1387.954 1387.525 1387.422 1388.194 1386.381 1384.808 1384.808 1385.764 1386.313 1385.391 1385.658 1385.729 1385.464 1385.202 1386.076 1386.48 1386.709 1386.651 1385.661 1385.149 1384.695 1384.917 1385.301 1385.037 1385.727 1385.768 1386.146 1385.548 1384.533 1383.585 1383.633 1383.256 1383.256 1383.256 1383.256 1383.256 1383.414 1383.435 1383.472 1384.903 1385.641 1387.113 1387.512 1387.41 1388.301 1388.55 1389.894 1391.848 1393.365 1394.823 1395.822 1396.306 1396.882 1397.258 1397.497 1398.136 1398.908 -9999
1799.293 1798.415 1797.438 1797.026 1796.107 1795.596 1794.876 1794.192 1793.839 1793.772 1793.382 1793.031 1792.984 1792.49 1791.759 1790.933 1789.829 1788.992 1788.144 1787.34 1786.627 1785.549 1784.367 1783.978 1783.9 1781.569 1780.254 1780.209 1777.627 1777.061 1774.822 1773.171 1771.999 1770.466 1769.103 1767.514 1766.638 1765.125 1764.015 1763.071 1759.323 1754.285 1758.809 1764.066 1765.841 1767.016 1768.193 1768.776 1769.665 1771.502 1773.11 1774.189 1774.71 1775.087 1774.413 1774.091 1773.649 1771.93 1770.61 1769.467 1767.133 1765.144 1763.202 1761.327 1759.038 1757.873 1755.732 1754.189 1752.269 1750.968 1749.508 1747.239 1745.63 1744.584 1743.852 1742.881 1742.526 1741.546 1740.845 1740.042 1738.792 1737.76 1736.363 1735.216 1734.31 1733.243 1731.769 1730.588 1728.971 1727.3 1725.593 1723.519 1721.1 1717.793 1714.789 1712.86 1711.704 1710.476 1708.992 1707.219 1705.071 1701.969 1700.602 1698.228 1695.502 1694.306 1691.989 1690.6 1688.984 1686.731 1685.622 1684.727 1682.251 1681.131 1678.111 1674.94 1672.008 1669.152 1667.722 1666.598 1663.134 1661.498 1658.815 1657.203 1655.594 1652.299 1647.557 1642.636 1637.512 1634.33 1631.461 1628.736 1626.2 1623.785 1621.945 1620.427 1619.145 1616.89 1615.289 1613.562 1611.357 1608.996 1606.537 1603.807 1602.115 1597.34 1583.518 1565.687 1562.549 1566.822 1567.193 1565.831 1563.568 1564.065 1570.181 1572.599 1575.833 1581.492 1585.677 1587.921 1589.708 1588.921 1588.434 1585.325 1590.887 1596.486 1601.382 1611.609 1624.205 1629.788 1634.145 1638.522 1642.936 1646.952 1649.871 1653.978 1658.486 1662.66 1668.12 1672.692 1677.847 1681.634 1687.066 1692.208 1697.369 1701.37 1705.871 1710.395 1713.528 1716.022 1719.27 1722.757 1726.026 1728.581 1731.627 1734.63 1737.555 1739.82 1741.674 1743.807 1745.806 1747.639 1749.381 1751.002 1752.644 1754.39 1755.381 1756.648 1755.939 1757.314 1757.08 1756.557 1755.885 1755.091 1753.322 1751.839 1750.043 1747.405 1745.439 1744.332 1743.19 1741.022 1739.015 1736.966 1733.722 1730.308 1726.056 1721.778 1714.619 1706.667 1711.303 1714.03 1712.098 1707.122 1697.807 1688.004 1676.255 1665.061 1657.16 1650.55 1645.443 1641.805 1638.555 1634.783 1630.038 1625.599 1622.787 1620.454 1619.279 1616.748 1614.283 1612.128 1610.27 1608.505 1606.252 1604.412 1602.028 1599.505 1597.274 1594.758 1591.932 1589.502 1586.656 1583.298 1579.847 1576.389 1574.55 1572.338 1569.434 1566.645 1563.74 1559.572 1555.374 1549.994 1545.848 1540.486 1540.103 1538.083 1535.239 1532.367 1528.895 1525.475 1521.812 1518.064 1514.486 1509.844 1506.903 1504.23 1501.372 1497.376 1490.5 1480.99 1471.246 1466.582 1463.275 1458.582 1456.769 1453.566 1451.583 1447.731 1444.148 1440.568 1437.602 1435.356 1432.901 1431.066 1428.636 1422.775 1423.999 1424.925 1422.451 1419.86 1417.081 1416.531 1413.045 1409.473 1406.943 1407.989 1407.889 1407.257 1407.024 1405.377 1404.48 1403.087 1399.798 1395.428 1396.942 1397.389 1396.395 1395.65 1393.915 1391.548 1389.52 1387.899 1387.205 1387.279 1385.656 1387.444 1387.463 1387.927 1388.143 1388.088 1388.524 1388.264 1388.367 1388.545 1388.991 1388.833 1384.934 1384.808 1385.342 1385.996 1386.383 1385.883 1385.676 1385.872 1385.642 1386.606 1387.533 1387.379 1386.711 1385.114 1384.79 1384.868 1385.133 1385.358 1385.909 1386.501 1386.696 1386.898 1386 1385.715 1384.998 1383.548 1383.474 1383.292 1383.256 1383.256 1383.256 1383.256 1383.256 1383.256 1383.256 1383.598 1383.911 1385.602 1386.004 1387.191 1387.807 1388.928 1390.571 1392.459 1393.483 1393.957 1394.639 1395.82 1396.483 1397.258 1398.248 1398.641 -9999
1799.855 1799.11 1798.064 1797.601 1796.837 1796.029 1795.264 1794.348 1794.219 1794.095 1793.642 1793.147 1793.267 1792.757 1792.13 1791.303 1790.462 1789.769 1788.511 1787.726 1787.005 1786.074 1784.651 1783.927 1782.937 1781.273 1780.935 1779.846 1777.843 1777.465 1774.2 1772.981 1771.583 1768.499 1766.336 1763.936 1762.372 1762.175 1762.196 1761.465 1758.612 1753.297 1759.67 1764.476 1766.141 1766.942 1768.075 1768.723 1769.721 1771.154 1771.754 1772.597 1773.204 1773.515 1772.637 1772.308 1771.869 1770.726 1768.808 1767.662 1765.809 1763.787 1762.117 1760.221 1758.676 1756.658 1754.57 1753.689 1751.14 1749.823 1748.336 1746.708 1744.836 1743.077 1741.936 1741.087 1740.344 1739.317 1738.767 1737.393 1736.591 1735.094 1733.831 1733.003 1732.045 1730.729 1729.224 1727.908 1726.553 1724.808 1723.12 1721.448 1718.395 1715.984 1713.1 1709.881 1708.679 1707.632 1705.991 1704.417 1702.265 1699.933 1697.133 1694.78 1692.041 1691.284 1689.171 1687.348 1685.802 1683.585 1682.293 1681.219 1679.926 1677.121 1675.413 1672.948 1670.486 1667.22 1665.884 1663.762 1661.344 1658.81 1657.317 1654.447 1652.577 1650.403 1645.047 1639.767 1636.099 1633.475 1629.352 1626.907 1624.13 1622.398 1620.805 1619.434 1617.056 1614.89 1613.38 1611.539 1609.394 1607.195 1605.492 1601.877 1600.441 1596.077 1579.267 1566.135 1564.104 1564.253 1567.867 1566.495 1564.788 1564.595 1571.982 1577.216 1582.521 1589.803 1595.173 1597.583 1596.984 1596.33 1596.714 1594.198 1594.117 1597.416 1604.964 1611.67 1624.937 1631.097 1635.267 1639.859 1644.625 1649.361 1652.807 1657.093 1662.43 1667.42 1672.265 1677.257 1682.294 1686.799 1691.5 1695.775 1700.759 1704.646 1708.792 1713.197 1716.591 1719.528 1722.522 1725.54 1728.684 1731.55 1734.422 1737.505 1740.462 1743.1 1745.081 1747.174 1749.572 1751.274 1753.627 1755.411 1756.752 1758.146 1759.038 1760.054 1759.359 1760.189 1760.374 1759.68 1758.944 1757.729 1756.266 1754.656 1752.317 1749.573 1747.134 1745.247 1743.589 1741.444 1739.22 1736.542 1733.431 1730.172 1726.711 1720.441 1719.261 1717.557 1716.632 1715.371 1714.061 1710.429 1704.476 1696.133 1684.271 1670.47 1662.726 1653.705 1648.194 1644.061 1640.367 1636.7 1632.917 1627.943 1625.425 1622.759 1619.072 1618.803 1616.176 1614.179 1611.815 1609.988 1607.586 1605.462 1602.997 1600.361 1597.015 1594.313 1591.761 1588.899 1585.59 1581.301 1579.263 1577.95 1575.84 1572.98 1569.386 1563.707 1559.423 1557.489 1553.193 1549.07 1547.703 1546.51 1543.315 1539.917 1536.943 1533.183 1529.648 1526.29 1522.362 1518.964 1514.331 1510.281 1507.136 1504.648 1501.342 1496.593 1487.526 1477.603 1472.095 1467.253 1464.282 1461.581 1457.786 1454.849 1451.303 1447.846 1444.248 1441.177 1438.265 1435.897 1433.328 1431.106 1428.725 1426.219 1423.166 1424.802 1424.052 1420.212 1418.926 1417.87 1415.366 1410.869 1408.447 1409.085 1408.637 1407.952 1407.135 1407.573 1406.962 1405.273 1399.876 1397.28 1398.756 1398.212 1396.355 1393.714 1393.341 1392.303 1391.006 1388.649 1388.168 1388.792 1386.686 1389.316 1387.818 1388.134 1388.817 1388.579 1388.561 1388.62 1388.652 1388.952 1389.247 1389.885 1388.595 1384.808 1384.808 1385.81 1386.817 1386.63 1387.209 1385.966 1386.618 1387.498 1386.599 1386.476 1385.281 1385.011 1385.747 1385.27 1385.327 1385.505 1386.45 1386.92 1387.247 1386.747 1386.508 1386.013 1385.439 1384.552 1384.076 1383.523 1383.256 1383.256 1383.29 1383.256 1383.256 1383.256 1383.347 1383.256 1383.396 1383.963 1384.736 1386.298 1387.419 1388.53 1389.875 1390.908 1392.434 1393.43 1393.818 1395.171 1396.289 1396.954 1398.238 1399.094 -9999
1800.52 1799.431 1798.426 1798.197 1797.3 1796.467 1795.825 1795.417 1794.775 1794.32 1793.99 1793.485 1793.56 1792.85 1791.973 1791.355 1790.961 1790.261 1789.64 1788.369 1787.464 1786.774 1784.82 1784.073 1783.215 1781.493 1781.445 1780.1 1777.451 1776.781 1774.118 1772.666 1769.728 1765.979 1762.457 1760.575 1758.836 1757.041 1758.119 1758.015 1755.284 1752.241 1759.044 1764.404 1766.285 1767.565 1768.016 1768.352 1769.791 1770.38 1771.205 1771.584 1771.554 1771.621 1770.917 1770.205 1769.802 1769.181 1767.356 1765.377 1764.18 1762.404 1760.776 1759.404 1757.14 1756.311 1753.636 1752.263 1750.663 1748.428 1746.528 1745.165 1743.3 1741.935 1740.785 1739.168 1738.331 1737.177 1736.497 1735.433 1733.795 1732.792 1731.552 1730.32 1729.478 1728.232 1726.868 1725.468 1723.761 1722.575 1720.534 1718.893 1716.523 1713.821 1710.37 1707.328 1705.778 1704.837 1703.105 1701.979 1698.639 1696.191 1692.836 1690.911 1689.393 1687.718 1686.45 1684.157 1682.2 1680.379 1678.763 1677.672 1676.201 1673.85 1672.18 1669.212 1667.354 1664.92 1662.658 1660.779 1659.214 1657.969 1654.444 1652.917 1650.38 1648.356 1643.926 1638.891 1634.511 1630.791 1628.047 1625.109 1622.872 1620.976 1619.075 1617.04 1615.317 1613.193 1611.467 1609.305 1607.223 1605.587 1602.901 1600.533 1598.301 1593.777 1580.818 1566.155 1567.574 1564.498 1567.807 1566.622 1568.159 1568.674 1580.641 1586.418 1587.219 1589.674 1597.174 1603.609 1606.693 1605.56 1605.307 1606.522 1606.075 1600.856 1608.482 1615.271 1624.73 1632.109 1636.678 1641.613 1646.328 1651.636 1656.055 1661.122 1666.051 1671.686 1676.803 1681.454 1687.018 1691.927 1696.015 1699.917 1703.945 1708.148 1712.231 1716.194 1719.715 1722.743 1725.66 1728.75 1731.577 1734.659 1737.65 1740.463 1743.406 1746.293 1748.373 1750.983 1753.407 1755.724 1757.579 1759.027 1760.875 1761.599 1762.472 1762.965 1762.699 1762.863 1762.461 1761.573 1760.785 1759.371 1757.829 1756.35 1753.996 1751.314 1748.654 1746.304 1744.028 1741.644 1739.398 1736.534 1733.902 1731.285 1728.532 1726.155 1724.603 1722.54 1719.542 1717.295 1714.997 1712.754 1707.97 1700.3 1690.931 1678.495 1668.815 1661.622 1653.856 1647.333 1643.387 1639.795 1634.97 1631.034 1627.899 1625.226 1622.325 1617.741 1617.835 1615.445 1613.109 1611.019 1608.732 1605.925 1602.851 1600.042 1596.013 1592.473 1589.121 1586.208 1584.302 1582.146 1579.573 1576.543 1573.887 1570.62 1568.615 1566.373 1562.534 1558.979 1554.392 1551.476 1547.639 1542.89 1540.457 1537.269 1535.443 1532.958 1529.997 1525.45 1520.837 1516.68 1512.863 1509.427 1506.416 1503.34 1498.774 1490.819 1481.007 1474.668 1473.225 1473.342 1470.474 1467.027 1461.226 1456.339 1451.617 1447.849 1444.906 1441.567 1438.742 1435.686 1432.915 1432.096 1430.435 1428.112 1423.166 1424.404 1425.289 1422.233 1419.636 1419.52 1417.08 1412.825 1410.701 1410.445 1410.107 1408.815 1407.998 1408.281 1406.542 1403.552 1401.177 1400.837 1400.002 1398.04 1395.72 1394.379 1393.403 1392.872 1391.794 1390.933 1389.628 1386.686 1391.987 1389.496 1388.682 1388.538 1389.905 1389.697 1389.383 1388.561 1389.472 1389.329 1389.503 1389.839 1389.321 1388.254 1384.808 1384.808 1386.794 1387.464 1386.835 1386.4 1387.125 1386.963 1386.526 1386.204 1386.186 1385.935 1385.41 1385.323 1385.923 1387.154 1387.15 1387.881 1387.245 1387.228 1387.266 1386.604 1385.772 1385.469 1384.18 1383.875 1383.448 1383.256 1383.46 1383.256 1383.256 1383.256 1383.256 1383.256 1383.256 1383.806 1384.844 1385.463 1386.89 1388.028 1389.81 1390.996 1391.96 1393.103 1393.888 1394.934 1396.168 1396.991 1398.318 1398.859 1397.584
1801.52 1800.433 1799.483 1798.654 1797.901 1797.074 1796.54 1795.804 1795.264 1794.861 1794.445 1794.197 1793.755 1793.099 1792.467 1791.834 1791.315 1790.932 1789.961 1789.011 1788.5 1786.473 1785.268 1784.438 1782.885 1781.859 1782.105 1778.998 1776.894 1775.589 1773.874 1770.643 1767.457 1765.599 1762.309 1759.832 1760.467 1757.505 1754.448 1753.93 1752.827 1751.603 1758.006 1764.039 1765.95 1767.002 1767.933 1768.212 1768.507 1769.566 1769.973 1769.399 1769.919 1769.48 1768.76 1768.078 1767.439 1766.726 1765.566 1763.806 1761.802 1761.352 1759.624 1758.036 1756.407 1754.845 1753.145 1751.184 1749.267 1747.255 1745.326 1743.802 1742.486 1740.345 1739.249 1738.138 1737.02 1735.617 1734.77 1733.444 1732.364 1731.062 1729.854 1728.852 1727.251 1726.065 1724.815 1723.1 1721.749 1719.963 1718.48 1716.913 1714.259 1711.749 1709.231 1706.19 1703.642 1700.096 1700.654 1698.492 1696.113 1692.222 1689.736 1687.221 1686.021 1685.596 1682.634 1680.895 1679.727 1677.58 1676.146 1674.118 1672.526 1670.819 1669.211 1667.421 1664.261 1662.644 1660.261 1657.958 1656.397 1654.345 1651.898 1649.601 1648.411 1646.37 1642.181 1637.502 1632.853 1628.868 1626.353 1623.87 1622.486 1619.134 1617.359 1614.672 1612.387 1610.189 1608.5 1606.456 1605.077 1603.098 1601.554 1599.654 1595.829 1591.191 1584.486 1571.3 1568.28 1567.672 1566.16 1570.65 1571.006 1568.335 1577.685 1591.049 1593.603 1594.182 1597.689 1606.443 1611.669 1612.383 1613.649 1615.057 1614.227 1614.467 1610.686 1621.571 1628.158 1632.799 1638.197 1642.967 1647.661 1651.962 1657.976 1664.3 1670.084 1675.262 1680.223 1685.857 1691.115 1695.686 1699.807 1703.978 1708.37 1711.905 1715.011 1719.043 1722.925 1726.132 1728.912 1731.649 1734.771 1737.997 1740.885 1743.465 1746.533 1749.381 1752.456 1755.266 1757.755 1759.795 1761.413 1762.773 1763.913 1764.369 1764.83 1765.078 1764.569 1765.064 1764.079 1762.889 1761.839 1760.211 1758.855 1757.673 1755.481 1753.098 1750.713 1748.379 1745.683 1743.165 1741.088 1739.233 1736.716 1734.617 1732.169 1729.789 1726.292 1724.194 1722.172 1719.759 1716.779 1714.085 1709.77 1704.986 1697.679 1689.262 1678.964 1670.082 1660.375 1651.366 1646.688 1642.416 1638.658 1634.851 1630.618 1627.363 1624.602 1621.435 1616.714 1616.678 1614.607 1611.903 1608.777 1605.713 1601.792 1596.707 1593.221 1591.924 1591.132 1587.724 1585.331 1583.684 1582.541 1577.922 1576.769 1574.74 1572.491 1569.299 1564.924 1560.885 1556.851 1553.492 1549.472 1542.925 1538.928 1534.839 1531.831 1529.637 1526.781 1522.513 1517.762 1512.545 1508.295 1504.933 1502.475 1498.891 1492.787 1485.149 1481.646 1484.033 1483.864 1480.145 1475.918 1470.208 1464.432 1458.163 1452.815 1449.019 1446.006 1442.862 1439.914 1437.341 1435.333 1433.612 1431.674 1430.071 1427.677 1423.589 1425.34 1423.871 1421.447 1419.697 1418.66 1415.878 1413.297 1412.762 1411.583 1411.114 1409.366 1407.296 1404.578 1404.894 1404.169 1402.604 1400.264 1400.865 1396.397 1394.995 1394.664 1392.398 1391.156 1390.022 1387.515 1390.717 1391.885 1390.498 1389.569 1389.618 1389.812 1389.576 1389.396 1389.035 1388.994 1389.297 1389.297 1389.774 1389.876 1389.084 1388.439 1384.808 1385.776 -9999 -9999 -9999 -9999 1387.304 1387.179 1387.286 1387.16 1387.113 1387.291 1387.494 1386.663 1388.105 1388.964 1389.021 1389.182 1388.036 1387.867 1387.414 1386.53 1386.317 1385.042 1384.404 1383.875 1383.927 1383.568 1383.42 1383.513 1383.543 1383.665 1383.529 1384.209 1384.381 1384.692 1384.996 1385.321 1386.119 1387.453 1389.214 1390.14 1391.524 1392.65 1394.032 1395.292 1395.892 1396.048 1397.185 1399.394
1802.412 1801.393 1800.691 1799.762 1798.869 1798.235 1797.378 1796.683 1796.016 1795.63 1795.283 1794.564 1794.18 1793.465 1793.057 1792.429 1791.927 1791.324 1790.65 1789.934 1788.999 1787.406 1785.925 1784.242 1783.495 1781.859 1782.65 1775.415 1773.893 1772.945 1771.441 1769.042 1768.008 1763.37 1768.975 1768.903 1767.728 1766.119 1760.373 1751.52 1747.42 1752.037 1756.802 1761.868 1764.73 1766.122 1767.498 1767.843 1767.899 1768.659 1768.304 1767.823 1767.569 1766.577 1766.007 1765.765 1765.234 1764.759 1763.38 1762.324 1760.366 1759.379 1757.872 1756.387 1754.872 1753.755 1751.775 1750.213 1748.019 1745.794 1743.989 1742.199 1740.4 1739.142 1738.195 1737.417 1736.447 1735.156 1734.021 1732.019 1730.618 1729.061 1727.957 1726.837 1725.779 1724.022 1722.696 1721.024 1718.686 1717.136 1715.723 1714.157 1712.013 1709.984 1707.198 1703.884 1701.452 1697.577 1698.473 1695.881 1692.186 1688.148 1686.976 1685.574 1683.215 1681.839 1680.213 1678.469 1677.27 1674.895 1674.396 1672.181 1670.008 1668.747 1666.105 1664.417 1662.153 1660.077 1658.826 1656.071 1653.077 1651.87 1649.62 1647.338 1646.37 1644.017 1641.075 1635.543 1631.083 1627.841 1625.343 1621.966 1619.951 1616.863 1615.271 1611.389 1609.192 1607.846 1605.702 1604.139 1602.475 1601.327 1599.765 1599.61 1595.014 1587.208 1582.72 1577.872 1571.959 1569.173 1566.16 1571.204 1570.25 1570.921 1577.514 1596.608 1602.156 1604.104 1600.581 1605.922 1612.452 1614.557 1616.065 1617.44 1619.005 1621.019 1617.334 1617.674 1628.842 1634.996 1640.417 1644.673 1648.945 1654.088 1660.274 1666.164 1673.44 1679.008 1685.134 1690.846 1695.34 1699.692 1704.442 1708.535 1712.107 1715.17 1718.379 1722.243 1726.089 1729.618 1732.654 1735.767 1738.438 1741.563 1744.169 1747.192 1750.282 1753.939 1757.034 1759.673 1761.791 1763.366 1764.785 1765.616 1766.451 1766.342 1766.389 1766.374 1765.774 1765.539 1764.875 1763.619 1762.799 1761.218 1759.806 1758.311 1756.542 1754.42 1752.19 1750.089 1747.689 1745.303 1742.935 1741.395 1739.094 1737.031 1734.383 1732.124 1728.244 1726.23 1723.386 1720.416 1717.773 1714.905 1711.962 1708.993 1703.265 1696.927 1687.816 1678.567 1666.067 1656.149 1648.971 1644.965 1641.56 1638.15 1633.97 1629.413 1626.224 1623.065 1620.855 1615.195 1614.315 1612.971 1608.682 1604.918 1599.57 1595.761 1594.761 1593.278 1591.164 1588.832 1586.816 1583.819 1581.606 1578.825 1576.749 1574.843 1572.484 1569.672 1566.096 1562.003 1557.825 1555.962 1551.789 1548.09 1543.715 1537.796 1532.307 1528.344 1523.986 1518.767 1513.938 1509.987 1506.8 1502.21 1498.34 1496.294 1490.997 1488.14 1492.072 1490.396 1486.853 1482.858 1476.752 1468.937 1461.778 1455.792 1452.261 1450.014 1448.257 1444.447 1441.301 1438.785 1436.77 1434.792 1433.773 1431.797 1428.168 1424.974 1425.081 1425.375 1422.389 1419.613 1417.65 1415.77 1414.01 1412.102 1410.688 1409.295 1407.894 1406.686 1405.161 1403.534 1401.691 1400.199 1398.57 1396.918 1395.682 1394.446 1393.412 1392.7 1392.151 1391.805 1391.718 1391.124 1390.617 1390.418 1390.073 1389.908 1389.667 1389.608 1389.599 1389.576 1389.498 1389.519 1389.655 1389.565 1389.501 1388.868 1387.453 1385.876 -9999 -9999 -9999 -9999 -9999 -9999 -9999 1387.16 1387.16 1387.475 1387.741 1387.772 1387.962 1388.198 1388.496 1388.434 1388.361 1388.028 1387.647 1386.592 1385.76 1385.241 1384.861 1384.696 1384.402 1384.216 1384.029 1383.958 1384.14 1384.165 1384.162 1383.923 1383.889 1384.17 1384.971 1385.145 1385.854 1386.422 1387.731 1389.423 1391.406 1392.674 1394.232 1395.243 1395.714 1396.242 1397.299 1398.686 1398.263
1802.63 1801.458 1800.395 1799.775 1798.959 1798.113 1797.32 1797.056 1796.108 1795.423 1795.096 1794.712 1794.323 1793.854 1793.52 1792.947 1792.071 1791.653 1791.082 1790.169 1789.424 1788.045 1786.329 1784.903 1783.506 1781.859 1783.317 1779.135 1778.014 1776.097 1773.708 1769.142 1767.802 1772.147 1772.965 1772.566 1771.274 1769.193 1766.457 1755.469 1745.395 1751.887 1754.821 1759.361 1762.803 1765.403 1767.384 1767.3 1767.04 1767.536 1767.118 1766.432 1765.645 1764.684 1764.403 1763.232 1763.24 1762.147 1761.7 1760.675 1758.688 1757.366 1756.238 1754.853 1754.032 1752.105 1750.32 1748.973 1746.767 1745.057 1743.047 1740.884 1739.131 1738.062 1737.245 1736.385 1735.409 1734.071 1732.982 1731.487 1729.632 1727.857 1726.353 1725.08 1723.721 1721.956 1720.283 1718.291 1716.241 1714.64 1713.349 1712.117 1709.623 1707.496 1704.478 1702.492 1699.153 1692.145 1695.341 1693.384 1689.697 1685.893 1683.94 1682.219 1679.921 1678.653 1678.491 1675.686 1674.284 1672.39 1671.161 1669.396 1667.306 1665.659 1663.787 1662.045 1659.5 1658.854 1655.057 1652.972 1651.229 1649.021 1647.652 1645.47 1644.615 1641.999 1637.641 1633.393 1629.467 1625.7 1622.483 1620.115 1617.558 1615.169 1613.135 1609.68 1605.564 1605.012 1603.232 1602.349 1601.051 1599.97 1599.502 1597.614 1590.495 1583.854 1580.918 1579.127 1572.88 1571.104 1567.512 1571.557 1571.138 1575.492 1586.802 1602.651 1606.787 1608.327 1608.396 1606.065 1613.189 1615.962 1619.067 1620.572 1622.935 1625.546 1627.91 1627.351 1625.456 1635.852 1642.7 1646.813 1651.574 1658.49 1663.959 1671.298 1677.189 1683.507 1689.467 1694.587 1699.202 1703.958 1708.398 1712.404 1715.621 1719.371 1721.128 1725.2 1730.004 1733.326 1736.393 1739.542 1741.975 1744.856 1748.086 1751.377 1755.14 1758.256 1761.34 1763.48 1765.366 1766.661 1767.491 1767.878 1768.076 1767.921 1767.388 1767.382 1766.392 1766.015 1765.415 1764.364 1763.009 1761.653 1760.094 1758.866 1757.703 1755.595 1753.42 1751.184 1749.143 1747.257 1744.94 1743.032 1740.995 1738.909 1736.494 1734.07 1730.911 1728.12 1724.774 1721.847 1719.423 1716.861 1713.973 1711.013 1706.108 1700.277 1693.708 1683.405 1672.561 1660.964 1652.799 1647.137 1644.068 1641.551 1637.886 1633.16 1628.734 1625.796 1622.535 1619.667 1612.454 1608.735 1605.627 1599.97 1600.057 1597.881 1596.146 1594.122 1591.723 1587.66 1583.168 1582.194 1580.695 1579.121 1577.289 1575.771 1574.072 1571.607 1567.305 1562.415 1559.913 1554.133 1550.31 1545.14 1542.039 1537.456 1533.367 1530.28 1525.588 1522.6 1519.028 1514.528 1510.232 1506.969 1503.958 1499.936 1495.835 1492.814 1488.189 1484.647 1477.77 1475.571 1470.989 1466.744 1463.145 1458.328 1455.59 1452.547 1448.023 1444.65 1441.433 1439.293 1437.204 1435.26 1432.772 1431.436 1429.841 1425.563 1424.974 1425.919 1423.516 1419.96 1417.831 1416.823 1415.368 1413.803 1412.662 1411.344 1409.477 1408.603 1407.075 1405.466 1403.821 1402.484 1400.988 1398.612 1396.914 1395.332 1394.161 1393.483 1392.511 1390.609 1390.609 1391.315 1390.609 1390.314 1390.848 1390.098 1390.909 1390.963 1389.783 1389.561 1389.498 1390.455 1390.107 1389.501 1389.516 1389.458 1388.824 1388.148 -9999 -9999 -9999 -9999 -9999 -9999 -9999 1387.966 1388.577 1388.312 1387.829 1388.514 1388.568 1388.759 1388.484 1388.676 1389.09 1389.246 1389.1 1388.59 1387.516 1386.727 1385.219 1384.499 1384.352 1383.919 1383.919 1384.083 1384.347 1383.889 1383.889 1383.889 1383.889 1383.889 1383.966 1383.889 1384.29 1384.65 1387.09 1389.538 1391.91 1393.566 1393.935 1394.848 1396.03 1396.871 1397.403 1399.009 1398.99
1803.624 1802.482 1801.585 1800.614 1799.543 1799.195 1798.475 1797.903 1797.169 1796.427 1795.734 1795.296 1794.642 1794.517 1793.958 1793.394 1792.874 1792.282 1791.846 1790.906 1790.285 1788.357 1787.306 1784.537 1783.545 1783.603 1783.714 1780.208 1778.759 1777.313 1774.232 1770.885 1771.878 1773.605 1773.791 1772.947 1772.449 1770.637 1768.432 1762.969 1753.778 1745.395 1745.987 1752.153 1760.434 1764.576 1766.269 1766.75 1766.519 1766.312 1765.744 1765.372 1764.361 1763.655 1762.343 1762.049 1761.55 1761.056 1759.24 1757.869 1756.878 1755.638 1754.061 1753.707 1752.029 1750.219 1748.703 1746.762 1744.456 1743.666 1741.222 1739.936 1738.317 1736.839 1735.948 1734.744 1734.281 1732.849 1731.745 1730.018 1728.243 1726.735 1725.213 1723.235 1721.282 1720.675 1718.388 1716.479 1714.826 1712.634 1711.037 1709.27 1708.013 1705.693 1703.789 1701.319 1699.732 1694.077 1692.145 1690.425 1687.207 1683.383 1680.677 1678.991 1677.659 1676.572 1675.295 1674.165 1671.979 1670.713 1668.624 1666.756 1665.09 1663.484 1660.979 1658.956 1657.036 1654.989 1653.048 1650.529 1648.394 1646.231 1644.611 1643.47 1641.924 1639.563 1634.644 1629.81 1626.784 1623.592 1620.544 1618.028 1614.821 1612.52 1610.005 1606.924 1603.516 1602.166 1601.178 1600.447 1601.819 1598.878 1595.684 1592.286 1585.992 1581.115 1578.319 1577.479 1573.902 1572.02 1567.512 1573.429 1578.729 1587.712 1591.748 1604.331 1607.795 1610.572 1611.982 1613.049 1615.272 1618.698 1622.328 1625.164 1627.767 1630.497 1633.01 1634.907 1636.556 1636.469 1640.311 1645.704 1654.589 1662.537 1668.719 1675.469 1681.475 1687.986 1693.522 1698.699 1703.401 1707.988 1712.056 1716.125 1718.871 1721.691 1724.666 1729.042 1733.425 1736.571 1739.958 1742.959 1746.062 1749.305 1752.583 1755.746 1759.138 1762.326 1764.852 1766.717 1768.141 1769.175 1769.685 1769.383 1769.344 1768.786 1768.188 1767.748 1766.461 1766.317 1765.497 1764.526 1763.16 1761.906 1760.345 1759.213 1757.899 1755.928 1754.061 1752.278 1750.353 1748.238 1745.893 1743.908 1741.758 1739.775 1737.609 1735.037 1733.242 1729.131 1726.072 1723.061 1720.87 1717.895 1714.917 1712.15 1708.78 1702.931 1698.744 1689.163 1676.592 1665.664 1657.561 1652.367 1647.665 1644.818 1641.304 1637.01 1632.331 1628.045 1624.444 1618.879 1612.312 1609.274 1607.264 1604.456 1602.415 1600.631 1598.749 1596.357 1594.795 1592.404 1590.039 1587.801 1584.115 1580.983 1579.218 1577.128 1575.304 1573.442 1571.086 1568.494 1565.667 1561.151 1557.658 1553.72 1549.909 1546.285 1542.598 1536.369 1531.726 1528.088 1523.846 1518.395 1515.115 1511.299 1507.349 1505.541 1502.649 1499.589 1495.547 1491.553 1486.929 1481.249 1475.76 1470.684 1466.031 1463.134 1459.668 1455.419 1450.555 1446.554 1442.748 1439.695 1437.569 1435.568 1434.092 1432.533 1430.824 1428.184 1424.974 1425.885 1425.661 1421.59 1420.169 1419.699 1418.922 1417.098 1416.115 1414.135 1412.48 1410.374 1408.409 1406.364 1403.519 1402.447 1401.683 1399.623 1397.439 1396.861 1394.74 1393.601 1392.191 1391.947 1390.609 1390.609 1391.122 1390.636 1390.503 1390.368 1389.912 1389.912 1389.871 1389.687 1389.498 1389.805 1389.936 1390.464 1389.861 1391.179 1391.706 -9999 -9999 -9999 -9999 -9999 -9999 -9999 -9999 1389.568 1390.2 1390.613 1391.25 1389.154 1389.859 1390.619 1392.782 1392.66 1392.298 1391.768 1391.661 1390.027 1389.162 1387.556 1386.681 1385.153 1384.225 1383.919 1383.919 1384.447 1384.014 1383.967 1383.889 1383.889 1383.889 1383.889 1383.908 1383.889 1384.032 1384.254 1385.615 1388.347 1390.87 1392.8 1393.938 1395.063 1396.21 1396.731 1398.326 1400.038 1400.533
1803.945 1802.963 1801.905 1800.851 1799.826 1799.214 1798.617 1798.527 1797.553 1796.987 1795.958 1795.512 1794.895 1794.692 1794.354 1793.58 1792.936 1792.512 1791.978 1790.848 1789.864 1788.748 1787.802 1786.3 1784.887 1784.673 1783.508 1781.38 1779.477 1777.306 1773.86 1773.322 1774.566 1774.592 1773.964 1773.661 1773.139 1771.32 1770.214 1768.955 1766.243 1758.428 1745.395 1743.835 1755.227 1762.936 1765.696 1765.85 1765.661 1765.998 1764.93 1764.366 1763.093 1761.9 1761.555 1760.256 1759.903 1759.053 1758.27 1756.404 1755.257 1753.536 1752.427 1751.19 1749.753 1748.152 1746.711 1744.634 1743.314 1740.648 1739.447 1737.683 1736.287 1735.686 1734.477 1733.157 1732.268 1731.147 1730.105 1728.463 1727.011 1725.334 1723.879 1721.646 1719.475 1717.817 1716.592 1714.706 1713.586 1710.718 1709.229 1707.651 1704.492 1703.011 1701.924 1699.847 1697.933 1692.893 1686.349 1686.396 1684.311 1679.897 1677.769 1675.43 1673.895 1673.3 1672.455 1671.338 1670.594 1668.644 1666.234 1664.471 1662.928 1660.221 1657.993 1656.757 1654.919 1652.357 1651.019 1648.098 1646.63 1643.876 1641.944 1640.173 1639.752 1636.214 1630.282 1626.548 1622.454 1619.676 1617.213 1614.631 1611.548 1608.86 1607.236 1604.442 1601.94 1599.516 1598.538 1598.691 1598.026 1594.735 1587.792 1584.15 1580.063 1578.113 1578.113 1577.379 1573.569 1567.894 1569.309 1583.484 1591.652 1597.445 1602.831 1606.924 1611.329 1614.04 1616.436 1617.858 1619.027 1622.691 1626.529 1629.802 1632.64 1636.607 1638.735 1642.224 1644.294 1645.192 1647.706 1652.06 1654.198 1660.848 1671.069 1678.582 1686.552 1692.777 1699.075 1703 1708.103 1712.55 1716.501 1719.21 1722.146 1724.773 1728.226 1731.749 1736.714 1739.592 1743.302 1746.761 1750.416 1753.66 1757.126 1759.838 1762.557 1765.076 1767.484 1769.473 1770.879 1771.521 1771.384 1770.63 1770.195 1769.069 1768.338 1767.957 1766.75 1766.439 1765.399 1764.527 1763.31 1761.997 1760.43 1759.3 1757.977 1756.259 1754.58 1752.759 1750.791 1749.019 1746.919 1745.024 1743.09 1740.956 1738.623 1736.406 1734.209 1730.142 1726.984 1724.212 1721.233 1718.69 1716.016 1713.205 1710.57 1706.135 1700.346 1692.516 1681.642 1670.797 1665.798 1659.858 1653.152 1648.895 1644.758 1640.359 1636.024 1630.578 1625.321 1617.675 1615.115 1609.621 1607.996 1607.566 1605.667 1603.23 1600.985 1599.506 1595.958 1593.951 1591.27 1588.525 1585.835 1583.25 1580.446 1577.771 1575.787 1574.19 1571.971 1569.446 1566.556 1563.246 1559.642 1556.303 1552.073 1548.519 1544.367 1540.96 1534.966 1531.518 1526.691 1523.323 1518.607 1514.564 1511.429 1508.209 1504.981 1501.839 1498.418 1492.684 1487.497 1483.142 1479.994 1475.413 1470.094 1466.479 1462.05 1457.938 1453.054 1448.99 1444.12 1441.013 1438.279 1437 1434.87 1433.164 1431.591 1429.187 1424.974 1425.792 1426.531 1421.787 1420.085 1420.292 1419.295 1417.352 1414.912 1413.051 1410.374 1411.045 1408.963 1406.117 1403.547 1402.528 1400.995 1399.488 1398.162 1396.595 1394.478 1393.64 1392.782 1391.946 1390.977 1391.519 1390.613 1390.368 1390.368 1390.652 1390.435 1390.598 1390.149 1390.258 1390.478 1390.604 1390.304 1391.024 1391.816 1391.679 -9999 -9999 -9999 -9999 -9999 -9999 -9999 -9999 -9999 -9999 -9999 1392.367 1392.398 1393.184 1390.89 1391.572 1393.115 1393.707 1393.778 1393.626 1392.894 1391.524 1390.857 1389.59 1388.172 1387.599 1386.825 1385.187 1383.928 1383.919 1384.428 1384.082 1383.889 1383.909 1383.889 1383.971 1383.889 1383.889 1383.896 1384.257 1385.237 1387.773 1389.983 1391.87 1393.368 1394.928 1395.945 1396.128 1397.554 1399.937 1400.934
1804.155 1803.129 1802.233 1801.21 1800.341 1799.56 1799.056 1798.563 1798.03 1797.011 1796.363 1795.634 1795.133 1794.756 1794.142 1793.716 1793.124 1792.672 1791.978 1791.118 1790.212 1789.258 1788.339 1787.095 1786.7 1785.591 1783.491 1782.271 1779.389 1776.292 1775.109 1776.133 1776.251 1775.521 1774.793 1774.504 1773.696 1772.369 1771.108 1769.899 1765.773 1758.352 1750.38 1741.485 1749.605 1761.57 1763.819 1764.812 1765.252 1764.589 1763.819 1763.222 1762.126 1761.113 1759.529 1759.771 1758.108 1757.134 1755.953 1755.232 1753.804 1752.191 1750.903 1749.251 1747.835 1746.025 1744.749 1742.649 1741.055 1738.813 1736.73 1735.536 1734.882 1733.933 1733.053 1731.52 1730.524 1729.481 1728.089 1726.978 1725.333 1723.844 1721.786 1719.385 1718.049 1715.757 1714.322 1712.412 1710.718 1709.274 1705.751 1704.79 1702.355 1701.489 1698.974 1698.099 1696.364 1691.057 1687.474 1679.987 1679.647 1677.681 1674.801 1672.205 1670.446 1668.727 1666.24 1666.541 1666.194 1664.675 1662.56 1660.658 1659.862 1657.937 1655.764 1653.804 1652.229 1649.894 1647.118 1645.061 1642.863 1640.599 1638.196 1636.985 1636.144 1632.183 1622.514 1620.187 1614.336 1612.392 1608.615 1606.588 1605.823 1605.094 1603.617 1602.599 1600.043 1598.35 1594.598 1593.255 1588.028 1585.112 1581.647 1579.668 1579.052 1578.254 1578.191 1574.882 1572.556 1568.008 1577.852 1592.74 1598.953 1603.594 1607.594 1611.92 1615.121 1619.302 1620.913 1621.919 1624.143 1626.869 1631.224 1634.976 1638.193 1640.782 1644.931 1647.164 1649.42 1652.279 1654.811 1658.026 1661.3 1663.605 1673.067 1680.204 1689.132 1696.843 1702.997 1707.715 1712.145 1715.694 1719.362 1722.153 1724.912 1727.856 1731.105 1735.027 1739.504 1742.803 1747.074 1750.665 1754.646 1757.893 1760.836 1763.501 1765.885 1768.221 1770.297 1771.777 1773.012 1773.223 1772.934 1771.839 1770.811 1770.067 1768.842 1768.242 1767.137 1766.544 1765.469 1764.455 1763.141 1762.028 1760.566 1759.449 1758.338 1756.717 1755.261 1753.256 1751.631 1750.203 1747.758 1745.89 1743.806 1741.981 1739.387 1737.096 1734.242 1730.812 1727.739 1724.999 1722.044 1719.635 1716.904 1714.417 1711.567 1708.135 1703.031 1696.529 1688.119 1681.046 1673.508 1666.071 1659.738 1653.77 1648.016 1642.994 1638.043 1631.855 1625.64 1617.64 1615.984 1612.318 1611.075 1610.129 1607.531 1605.217 1603.27 1600.455 1598.527 1595.749 1593.111 1590.101 1587.272 1584.385 1581.175 1578.04 1576.389 1574.25 1572.413 1570.261 1567.668 1564.61 1561.37 1558.11 1554.124 1549.279 1545.68 1541.188 1537.331 1532.734 1528.723 1524.499 1520.561 1516.699 1512.026 1508.647 1505.514 1502.235 1498.779 1494.403 1491.996 1488.012 1483.103 1479.392 1474.777 1469.64 1464.698 1460.357 1455.115 1450.538 1445.614 1442.038 1439.637 1437.855 1435.977 1433.92 1431.71 1429.88 1424.974 1425.648 1426.828 1423.318 1420.472 1419.664 1419.174 1418.282 1416.981 1415.397 1413.67 1411.828 1409.651 1407.698 1404.897 1402.009 1400.03 1398.6 1398.042 1396.277 1394.537 1393.758 1392.984 1392.115 1390.974 1390.974 1390.968 1390.832 1391.359 1391.076 1390.883 1391.003 1390.399 1390.749 1390.413 1390.67 1391.073 1391.732 1393.271 1392.946 -9999 -9999 -9999 -9999 -9999 -9999 -9999 -9999 -9999 -9999 -9999 -9999 -9999 1392.761 1394.364 1392.999 1393.474 1395.083 1395.567 1395.546 1395.134 1393.694 1392.183 1391.502 1390.679 1390.108 1388.789 1387.512 1385.546 1384.106 1383.889 1383.935 1383.889 1383.889 1383.965 1383.889 1383.889 1383.955 1384.003 1383.964 1385.634 1386.985 1389.336 1391.403 1392.792 1394.328 1395.436 1396.176 1396.653 1398.605 1401.13
1805.122 1803.931 1803.157 1802.266 1801.187 1800.248 1799.638 1799.201 1798.525 1797.776 1796.936 1796.124 1795.663 1795.12 1794.914 1794.045 1793.625 1793.093 1792.64 1791.64 1790.839 1789.972 1789.126 1788.119 1786.795 1786.51 1784.3 1782.05 1778.547 1777.66 1778.13 1777.995 1777.835 1776.582 1775.929 1775.067 1774.649 1773.448 1772.019 1770.239 1766.021 1757.927 1748.595 1740.639 1748.028 1758.525 1762.045 1763.159 1764.011 1763.877 1762.843 1762.484 1760.787 1759.589 1758.288 1757.178 1756.463 1755.549 1754.087 1753.075 1751.879 1749.99 1749.43 1747.133 1745.376 1743.618 1742.054 1739.912 1737.925 1737.121 1734.792 1733.389 1732.652 1732.645 1731.303 1729.643 1729.13 1727.687 1726.494 1725.016 1723.844 1722.496 1720.351 1718.458 1717.086 1715.29 1713.184 1710.907 1709.165 1706.8 1705.103 1702.532 1700.254 1698.175 1696.336 1694.984 1693.533 1689.479 1683.391 1677.202 1676.241 1673.137 1671.058 1664.791 1661.515 1660.939 1659.82 1658.763 1656.873 1654.67 1653.153 1652.106 1651.716 1654.32 1653.043 1651.746 1649.431 1646.665 1644.82 1642.13 1640.705 1637.577 1630.078 1633.3 1629.299 1616.076 1609.197 1604.672 1597.244 1594.702 1593.8 1590.157 1590.077 1590.291 1593.267 1593.355 1597.809 1596.808 1594.503 1586.39 1583.366 1581.593 1580.48 1576.565 1580.189 1579.407 1577.297 1575.646 1573.242 1569.344 1589.912 1597.416 1603.62 1608.016 1612.11 1617.753 1621.088 1624.369 1626.42 1628.043 1630.145 1632.534 1636.322 1639.949 1642.445 1646.229 1648.188 1650.987 1655.427 1659.023 1661.539 1665.591 1669.773 1671.301 1678.466 1686.062 1694.698 1699.363 1705.865 1710.895 1715.002 1718.163 1721.683 1724.895 1728.219 1731.727 1734.848 1737.904 1742.811 1746.097 1750.274 1754.299 1758.024 1761.258 1764.024 1766.415 1769.085 1771.113 1772.701 1773.777 1774.508 1774.385 1773.532 1772.619 1771.492 1770.012 1768.984 1768.337 1767.033 1766.383 1765.461 1764.456 1763.172 1762.189 1760.745 1759.492 1758.495 1756.889 1755.717 1753.785 1752.5 1751.22 1748.526 1746.563 1744.761 1742.183 1739.827 1737.062 1734.393 1731.329 1728.473 1725.484 1722.736 1720.422 1717.93 1715.189 1712.71 1709.862 1705.401 1700.15 1695.315 1688.698 1681.801 1673.637 1665.396 1656.293 1648.879 1642.404 1637.393 1629.865 1622.619 1618.586 1618.313 1615.629 1614.675 1613.701 1610.979 1608.625 1606.324 1602.278 1599.902 1596.507 1594.193 1591.468 1588.475 1585.5 1582.058 1579.502 1577.033 1574.954 1572.62 1570.68 1568.865 1566.017 1562.887 1559.947 1555.686 1550.951 1547.161 1542.697 1538.707 1534.139 1528.688 1525.065 1521.45 1516.579 1512.541 1509.358 1506.111 1502.619 1500.165 1497.757 1494.814 1491.268 1486.272 1481.643 1477.157 1472.145 1466.554 1462.142 1456.502 1451.578 1447.176 1443.542 1441.061 1438.644 1436.781 1434.791 1432.243 1429.916 1425.357 1425.391 1426.938 1425.225 1420.618 1419.64 1418.648 1417.776 1416.501 1414.69 1413.53 1411.569 1409.744 1408.041 1405.096 1401.787 1399.245 1398.295 1397.057 1396.118 1394.832 1394.108 1392.418 1391.85 1391.401 1392.136 1392.238 1392.591 1391.57 1391.754 1391.932 1390.821 1391.395 1391.189 1391.111 1390.844 1391.466 1392.117 1393.214 -9999 -9999 -9999 -9999 -9999 -9999 -9999 -9999 -9999 -9999 -9999 -9999 -9999 -9999 -9999 -9999 1395.621 1395.016 1395.461 1396.825 1396.923 1396.55 1395.558 1394.246 1393.326 1393.538 1393.543 1390.878 1388.885 1387.224 1385.634 1383.889 1383.889 1383.912 1383.899 1384.293 1384.123 1383.889 1383.889 1384.143 1384.366 1385.512 1387.167 1389.225 1391.014 1392.617 1394.075 1395.441 1396.336 1396.263 1396.874 -9999
1805.775 1804.792 1804.043 1802.694 1801.977 1800.906 1800.451 1799.783 1798.959 1798.085 1797.398 1796.723 1796.245 1795.685 1795.034 1794.484 1794.004 1793.24 1793.026 1792.292 1791.945 1790.839 1790.042 1788.816 1786.51 1787.299 1784.339 1781.885 1779.306 1779.325 1779.541 1779.695 1778.975 1778.12 1777.153 1776.421 1775.879 1774.17 1773.205 1771.658 1767.353 1759.365 1745.552 1739.614 1742.405 1751.901 1758.722 1761.005 1762.415 1762.499 1762.627 1761.167 1759.787 1758.276 1757.108 1755.329 1753.962 1752.877 1751.675 1750.966 1749.829 1747.678 1746.531 1745.168 1743.146 1741.577 1739.617 1738.112 1735.865 1734.915 1732.799 1730.925 1730.282 1729.885 1729.037 1727.669 1726.556 1725.861 1724.777 1723.562 1721.528 1720.371 1718.644 1717.239 1714.936 1712.746 1710.915 1709.095 1706.975 1704.918 1702.585 1700.301 1698.351 1695.439 1694.103 1691.482 1690.542 1686.381 1680.172 1676.701 1670.756 1666.129 1663.471 1660.679 1658.63 1657.484 1654.618 1652.392 1651.398 1649.93 1648.723 1648.065 1648.421 1648.404 1650.455 1648.967 1646.676 1644.921 1642.026 1640.022 1638.03 1634.602 1625.219 1624.674 1616.377 1607.059 1599.195 1593.204 1592.458 1591.588 1591.245 1590.076 1588.949 1585.951 1585.107 1584.503 1586.594 1594.283 1590.597 1585.218 1581.734 1579.255 1574.739 1573.314 1573.047 1571.753 1570.739 1570.101 1569.401 1582.958 1596.82 1603.126 1607.627 1613.238 1618.609 1623.209 1626.75 1628.131 1631.953 1633.896 1635.288 1636.812 1640.317 1642.586 1647.339 1652.24 1654.479 1657.576 1662.066 1665.614 1669.446 1672.089 1676.625 1680.924 1683.528 1690.247 1698.145 1704.097 1709.29 1713.555 1717.41 1720.792 1723.559 1727.151 1730.395 1734.442 1737.78 1741.452 1745.951 1749.196 1753.249 1757.611 1761.051 1764.28 1767.127 1769.633 1771.858 1773.262 1774.448 1774.954 1775.302 1774.946 1774.287 1772.675 1771.618 1770.245 1769.098 1768.498 1767.239 1766.657 1765.383 1764.243 1763.091 1761.956 1760.543 1759.296 1758.406 1756.577 1755.498 1754.194 1752.607 1751.682 1749.287 1746.964 1745.151 1742.519 1740.038 1737.457 1734.747 1731.883 1728.618 1726.203 1723.693 1720.813 1719.086 1716.253 1713.96 1711.799 1707.301 1702.512 1698.365 1693.315 1686.412 1676.095 1665.119 1653.755 1646.027 1640.373 1635.638 1628.073 1622.984 1620.813 1622.099 1619.947 1618.992 1618.1 1616.177 1612.167 1608.606 1604.749 1602.542 1598.392 1595.632 1592.313 1589.665 1586.475 1583.315 1580.414 1578.005 1576.388 1574.421 1572.646 1569.346 1566.44 1563.17 1561.158 1556.386 1553.762 1548.813 1544.244 1539.551 1535.793 1530.991 1526.086 1521.465 1516.835 1512.712 1509.792 1507.098 1504.774 1501.585 1498.965 1495.76 1492.213 1487.597 1483.904 1478.801 1473.329 1467.127 1461.132 1456.686 1451.76 1448.455 1444.367 1441.268 1439.579 1437.726 1434.951 1432.161 1430.325 1427.893 1425.357 1426.855 1427.182 1421.279 1419.648 1418.734 1417.261 1416.236 1414.901 1414.222 1411.274 1408.443 1406.031 1405.08 1402.32 1400.433 1398.833 1397.716 1396.618 1395.13 1393.84 1392.831 1391.594 1391.401 1393.217 1394.11 1394.131 1393.453 1392.414 1392.104 1391.893 1391.436 1391.375 1391.601 1391.13 1391.843 1392.387 1393.273 1393.791 -9999 -9999 -9999 -9999 -9999 -9999 -9999 -9999 -9999 -9999 -9999 -9999 -9999 -9999 -9999 -9999 1397.564 1396.798 1397.019 1397.896 1397.78 1396.643 1395.332 1394.719 1394.281 1394.555 1392.727 1390.64 1388.195 1386.506 1384.64 1383.889 1384.158 1384.372 1383.889 1384.081 1384.506 1383.889 1383.889 1384.422 1385.316 1386.824 1388.741 1389.269 1389.271 1389.246 1390.024 1390.929 1391.621 -9999 -9999
1806.162 1805.373 1804.427 1803.405 1802.607 1801.423 1800.798 1799.924 1799.155 1798.361 1797.636 1797.152 1796.523 1796.104 1795.389 1795.01 1794.493 1794.096 1793.236 1792.725 1792.122 1791.431 1790.396 1789.401 1786.51 1787.984 1784.319 1781.722 1780.87 1781.378 1781.647 1781.39 1780.832 1779.815 1778.928 1777.994 1777.098 1775.69 1774.318 1772.161 1769.337 1761.391 1747.21 1737.259 1737.973 1745.318 1752.795 1757.502 1760.367 1760.777 1761.113 1760.012 1758.774 1757.292 1755.357 1753.78 1751.927 1750.442 1749.18 1748.29 1747.347 1746.061 1744.695 1742.712 1740.962 1738.984 1737.383 1735.875 1734.327 1732.446 1730.928 1729.558 1728.145 1726.715 1726.408 1725.701 1724.761 1724.34 1722.717 1721.456 1720.198 1718.392 1717.093 1715.113 1713.423 1711.512 1709.09 1706.446 1705.344 1703.458 1700.535 1697.748 1695.677 1693.188 1689.057 1686.443 1684.796 1681.268 1676.309 1670.239 1665.994 1664.097 1660.411 1657.053 1654.743 1653.198 1651.625 1650.259 1648.715 1646.846 1645.832 1645.214 1643.422 1642.516 1644.42 1645.994 1643.861 1641.532 1640.064 1638.398 1634.572 1631.328 1622.395 1617.224 1608.057 1597.81 1595.508 1594.199 1593.19 1591.654 1591.569 1590.554 1588.879 1587.49 1583.626 1583.142 1580.53 1583.463 1582.299 1582.129 1577.845 1574.739 1575.988 1576.662 1575.49 1577.628 1577.093 1576.425 1584.505 1598.022 1602.201 1607.669 1614.679 1622.011 1624.992 1627.738 1630.765 1632.895 1635.202 1637.113 1639.81 1640.96 1643.492 1648.219 1651.918 1657.057 1661.114 1664.397 1669.403 1673.697 1677.234 1679.148 1682.946 1686.796 1691.358 1695.198 1701.519 1706.745 1712.736 1716.851 1720.207 1723.147 1726.494 1729.83 1733.326 1736.6 1740.422 1744.005 1749.217 1752.415 1756.602 1760.46 1763.897 1767.136 1770.225 1772.255 1774.034 1775.44 1775.987 1775.775 1775.63 1774.866 1773.837 1772.6 1771.431 1770.052 1768.91 1768.229 1767.034 1765.781 1764.71 1763.575 1762.553 1761.864 1760.307 1759.154 1758.231 1756.49 1755.395 1754.12 1752.708 1751.476 1749.165 1747.222 1745.412 1743.219 1740.396 1737.887 1734.982 1732.601 1728.932 1726.353 1723.778 1721.923 1720.036 1717.422 1714.882 1712.689 1709.043 1705.75 1700.354 1695.264 1687.419 1676.942 1664.162 1651.932 1643.93 1638.808 1633.543 1629.121 1623.458 1625.353 1625.382 1625.645 1625.222 1623.819 1620.182 1617.112 1613.793 1609.649 1604.756 1599.803 1596.374 1593.48 1590.997 1587.318 1584.891 1582.544 1579.445 1577.099 1575.179 1573.024 1570.079 1566.697 1564.501 1561.098 1557.921 1554.404 1550.595 1546.12 1541.549 1536.339 1530.13 1526.489 1523.089 1518.569 1514.658 1510.937 1508.047 1505.888 1502.918 1499.751 1496.468 1493.405 1488.916 1484.651 1478.633 1472.065 1466.209 1461.026 1457.046 1453.068 1449.812 1445.466 1442.807 1440.84 1437.505 1434.565 1432.338 1430.832 1429.197 1426.715 1426.794 1427.757 1422.133 1420.436 1419.125 1418.243 1416.492 1414.919 1411.389 1407.977 1406.978 1405.588 1403.876 1402.346 1400.98 1399.247 1397.217 1396.563 1395.962 1394.183 1392.971 1392.279 1392.223 1394.4 1394.976 1395.184 1395.373 1394.043 1393.126 1392.004 1392.137 1392.278 1392.214 1391.614 1391.696 1393.015 1393.523 1394.477 -9999 -9999 -9999 -9999 -9999 -9999 -9999 -9999 -9999 -9999 -9999 -9999 -9999 -9999 -9999 -9999 -9999 1399.124 1398.04 1397.86 1398.202 1397.572 1396.549 1395.308 1394.781 1394.978 1393.455 1391.583 1389.257 1387.492 1385.782 1383.889 1383.889 1384.077 1383.889 1384.414 1384.036 1384.143 1383.889 1383.889 1385.08 1386.48 1387.948 1389.857 1388.937 1388.772 1388.884 1389.009 1389.514 -9999 -9999
1806.731 1805.648 1804.948 1804.031 1802.956 1801.971 1801.133 1800.339 1799.432 1798.499 1797.873 1797.407 1796.846 1796.277 1795.632 1795.017 1794.712 1794.018 1793.518 1793.236 1792.639 1791.638 1790.62 1789.709 1788.518 1788.632 1784.319 1782.951 1783.223 1783.606 1783.527 1783.073 1783.04 1782.137 1780.764 1779.594 1778.45 1776.68 1775.029 1773.989 1770.948 1765.364 1754.202 1742.405 1735.262 1736.031 1742.009 1752.012 1756.17 1758.935 1759.385 1759.251 1757.518 1756.103 1754.309 1751.765 1750.633 1748.545 1746.824 1745.689 1745.049 1743.969 1742.193 1740.952 1738.696 1737.004 1735.849 1734.024 1732.149 1730.521 1729.035 1727.494 1726.277 1724.817 1724.1 1723.62 1722.405 1722.145 1720.4 1719.454 1718.235 1716.804 1714.997 1713.803 1711.609 1710.111 1707.619 1705.601 1703.913 1701.746 1698.953 1696.353 1692.999 1689.604 1682.243 1677.539 1673.084 1670.445 1668.197 1665.421 1659.946 1659.318 1656.346 1653.825 1652.431 1650.404 1648.77 1647.505 1646.695 1645.272 1644.341 1642.214 1639.249 1637.825 1637.873 1642.557 1640.48 1638.062 1637.31 1635.962 1632.842 1626.598 1615.76 1608.308 1604.497 1599.361 1591.947 1590.165 1588.656 1588.07 1588.07 1591.674 1588.817 1586.547 1585.916 1580.739 1580.792 1579.421 1577.629 1577.251 1577.251 1579.449 1579.32 1577.597 1579.696 1580.298 1585.273 1592.648 1599.897 1606.852 1610.013 1614.007 1619.706 1624.764 1628.743 1631.322 1633.556 1635.071 1637.749 1640.513 1642.885 1644.769 1648.456 1653.059 1659.087 1662.973 1668.128 1672.245 1674.314 1680.627 1684.049 1687.506 1689.107 1693.726 1697.749 1701.481 1705.857 1711.336 1716.396 1719.912 1722.89 1725.801 1729.421 1732.794 1736.065 1739.339 1743.36 1747.267 1752.055 1755.5 1759.26 1763.382 1766.723 1769.996 1772.806 1774.421 1775.867 1776.901 1777.022 1776.091 1775.755 1774.332 1773.413 1771.974 1771.06 1769.708 1768.45 1767.603 1766.243 1765.247 1764.243 1763.009 1761.791 1760.965 1759.641 1758.701 1758.08 1756.371 1755.34 1754.079 1752.607 1751.165 1749.15 1747.375 1745.46 1743.545 1740.861 1738.19 1735.499 1733.236 1729.71 1726.92 1724.577 1722.943 1720.627 1718.188 1715.932 1713.33 1710.171 1706.242 1701.327 1696.265 1689.24 1676.173 1663.592 1651.487 1643.975 1638.737 1629.278 1626.138 1627.412 1631.015 1630.349 1630.57 1630.123 1628.546 1623.965 1619.936 1616.133 1612.636 1608.027 1602.416 1598.193 1593.795 1591.783 1588.901 1585.934 1583.931 1581.077 1578.108 1576.247 1573.343 1571.383 1568.549 1565.34 1561.53 1558.898 1554.141 1551.238 1547.342 1543.253 1537.712 1533.777 1529.8 1524.41 1520.965 1515.85 1511.847 1508.23 1506.068 1503.322 1500.674 1498 1494.881 1490.337 1486.151 1479.599 1473.459 1468.873 1465.192 1460.963 1455.302 1450.454 1446.711 1443.951 1440.656 1437.772 1435.535 1434.371 1431.872 1429.358 1427.81 1426.715 1427.964 1423.392 1420.638 1419.905 1418.439 1415.275 1412.441 1410.048 1412.119 1411.005 1407.524 1405.095 1404.155 1403.444 1400.491 1398.365 1396.015 1395.047 1394.073 1393.439 1392.845 1393.626 1395.67 1396.63 1396.319 1396.816 1395.946 1393.54 1392.818 1392.573 1392.346 1392.458 1392.186 1392.483 1392.706 1393.569 1395.186 1396.487 -9999 -9999 -9999 -9999 -9999 -9999 -9999 -9999 -9999 -9999 -9999 -9999 -9999 -9999 -9999 -9999 -9999 1400.163 1398.613 1398.248 1398.551 1397.397 1396.551 1395.759 1394.443 1393.165 1391.635 1389.689 1388.37 1386.676 1385.525 1384.54 1383.889 1384.385 1383.998 1384.316 1383.889 1384.017 1383.889 1384.379 1385.875 1387.614 1389.389 1388.772 1389.098 1388.821 1388.821 1388.916 -9999 -9999
1807.18 1806.275 1805.403 1804.386 1803.459 1802.494 1801.48 1800.779 1799.872 1799.17 1798.59 1798.12 1797.399 1797.071 1796.456 1795.566 1795.113 1794.628 1793.996 1793.486 1793.096 1792.431 1791.593 1790.737 1789.637 1788.787 1785.687 1785.338 1784.992 1785.509 1785.422 1785.265 1785.352 1784.115 1782.98 1781.441 1780.353 1778.164 1776.409 1774.804 1773.369 1770.398 1763.047 1754.139 1741.553 1731.426 1730.059 1744.75 1750.755 1755.587 1757.711 1757.429 1755.802 1755.157 1753.527 1750.524 1747.85 1746.157 1744.622 1743.363 1742.147 1741.354 1740.422 1738.905 1736.775 1735.421 1733.196 1732.203 1729.591 1728.695 1727.056 1725.767 1724.338 1722.786 1721.78 1720.707 1720.086 1719.975 1718.619 1717.591 1715.938 1714.25 1713.328 1711.511 1709.893 1708.051 1705.988 1703.915 1702.585 1699.897 1697.292 1693.891 1691.497 1684.272 1675.55 1669.711 1667.227 1666.052 1666.875 1665.142 1661.65 1656.583 1653.104 1650.938 1648.799 1647.556 1646.538 1645.206 1644.327 1643.294 1642.239 1640.27 1638.094 1636.609 1635.95 1637.603 1637.157 1635.229 1633.892 1632.675 1629.741 1623.257 1609.666 1606.007 1603.818 1599.738 1592.982 1589.748 1588.918 1588.427 1588.07 1588.899 1592.988 1591.178 1585.688 1582.367 1581.84 1580.821 1583.222 1582.082 1581.773 1581.363 1580.49 1577.597 1581.116 1593.769 1600.326 1604.296 1609.327 1612.477 1616.38 1619.577 1623.553 1628.034 1630.024 1633.217 1635.376 1638.962 1640.198 1643.51 1645.621 1648.051 1652.666 1660.342 1666.333 1672.478 1674.823 1678.723 1683.095 1688.236 1690.547 1693.201 1695.302 1698.512 1703.318 1707.594 1711.313 1716.343 1719.897 1722.333 1725.616 1729.007 1732.243 1735.201 1738.585 1742.691 1746.661 1750.81 1755.193 1758.487 1762.134 1766.419 1769.949 1772.877 1775.321 1776.431 1777.219 1777.845 1777.315 1776.238 1775.355 1773.851 1772.624 1771.519 1770.335 1769.077 1768.014 1766.821 1765.396 1764.313 1763.199 1762.04 1761.233 1760.088 1758.787 1758.137 1757.407 1756.109 1754.877 1753.661 1752.197 1750.932 1748.897 1747.084 1745.609 1743.332 1740.899 1738.535 1735.735 1733.43 1730.373 1727.563 1725.286 1723.906 1721.426 1719.273 1716.698 1714.133 1711.252 1706.953 1702.962 1696.71 1686.401 1674.996 1660.936 1651.275 1643.747 1639.517 1631.207 1635.704 1637.06 1634.262 1635.409 1636.123 1633.716 1630.494 1626.658 1622.421 1618.849 1614.87 1610.085 1604.68 1599.115 1595.216 1592.163 1589.633 1586.937 1585.375 1582.692 1579.258 1576.751 1574.526 1571.765 1569.349 1566.373 1563.147 1559.12 1555.057 1551.778 1548.466 1544.161 1540.369 1535.705 1530.906 1526.813 1521.029 1516.654 1512.459 1508.745 1506.321 1504.399 1501.829 1498.441 1495.706 1491.638 1487.685 1482.93 1478.256 1474.043 1468.033 1461.772 1455.755 1451.569 1448.743 1444.921 1442.576 1440.653 1437.653 1435.656 1432.82 1430.938 1428.321 1426.715 1428.07 1425.41 1420.319 1418.814 1416.296 1413.566 1414.707 1415.911 1414.864 1413.324 1410.109 1408.233 1407.414 1405.543 1403.812 1399.637 1397.182 1395.482 1394.425 1393.988 1393.499 1395.165 1396.875 1398.003 1398.574 1398.757 1397.031 1394.922 1393.568 1393.362 1392.556 1393.384 1393.115 1393.574 1393.661 1394.325 1395.406 1396.362 1396.612 -9999 -9999 -9999 -9999 -9999 -9999 -9999 -9999 -9999 -9999 -9999 -9999 -9999 -9999 -9999 -9999 -9999 1400.919 1398.961 1398.559 1398.703 1397.427 1396.003 1394.099 1392.732 1391.633 1389.743 1388.937 1387.041 1386.21 1385.416 1384.568 1383.918 1383.889 1383.889 1383.889 1384.066 1383.996 1384.355 1384.919 1386.463 1387.417 1388.759 1390.002 1390.548 1391.347 1391.372 -9999 -9999
1807.603 1806.692 1805.835 1804.741 1803.979 1802.885 1801.77 1801.166 1800.232 1799.684 1799.189 1798.287 1797.662 1797.366 1796.881 1796.313 1795.374 1794.784 1794.563 1794.016 1793.566 1792.755 1791.956 1791.067 1790.734 1788.083 1787.469 1787.59 1787.203 1787.53 1787.597 1787.392 1787.471 1786.289 1784.971 1783.797 1782.213 1780.026 1777.878 1776.444 1774.423 1772.026 1767.917 1761.799 1751.084 1738.025 1727.598 1737.648 1744.364 1750.691 1753.895 1754.395 1753.646 1752.848 1751.026 1749.415 1747.32 1745.7 1742.237 1740.782 1739.565 1739.438 1737.38 1735.964 1733.99 1732.323 1730.959 1729.309 1727.825 1726.38 1724.894 1723.503 1721.859 1721.179 1720.046 1718.846 1718.664 1717.983 1716.2 1715.454 1714.068 1712.707 1711.596 1709.014 1708.19 1705.818 1703.586 1702.171 1700.494 1697.68 1695.863 1693.368 1690.102 1680.472 1673.555 1667.957 1663.281 1659.941 1662.933 1661.375 1659.043 1654.646 1650.626 1647.492 1645.941 1645.307 1644.118 1642.82 1640.789 1640.499 1639.513 1639.709 1637.17 1635.917 1634.123 1633.917 1632.94 1631.971 1631.397 1630.642 1625.514 1617.302 1606.129 1604.504 1604.458 1599.268 1595.33 1591.324 1596.728 1592.463 1587.74 1586.09 1590.173 1585.013 1583.09 1586.283 1584.454 1583.906 1583.161 1583.031 1583.282 1584.104 1585.891 1581.264 1583.034 1595.079 1602.89 1608.55 1614.153 1617.825 1620.898 1624.099 1626.311 1630.121 1633.051 1635.607 1638.516 1640.324 1643.356 1646.116 1650.733 1652.632 1655.949 1664.959 1672.509 1676.8 1681.324 1684.895 1689.831 1693.032 1695.675 1698.497 1700.965 1703.633 1708.753 1713.723 1717.209 1719.657 1722.233 1725.259 1728.174 1731.639 1734.847 1737.942 1741.5 1745.536 1749.528 1754.189 1757.78 1761.364 1765.063 1769.426 1772.856 1775.727 1777.843 1778.495 1778.512 1778.26 1778.074 1776.058 1775.072 1773.481 1772.216 1770.957 1769.657 1768.405 1767.097 1765.784 1764.5 1763.415 1762.613 1761.329 1760.301 1759.463 1758.431 1757.483 1757.196 1755.796 1754.574 1753.126 1751.765 1750.379 1748.789 1746.876 1745.436 1743.329 1740.96 1738.888 1736.139 1734.191 1731.053 1728.326 1725.374 1723.783 1721.752 1719.851 1717.519 1714.633 1711.589 1707.406 1702.661 1695.289 1684.053 1671.276 1659.313 1652.762 1645.072 1641.324 1634.359 1642.132 1643.873 1638.708 1642.729 1640.135 1636.369 1632.505 1629.218 1624.855 1621.445 1617.218 1611.408 1604.721 1600.106 1595.416 1593.299 1590.443 1588.526 1586.299 1583.973 1580.782 1577.299 1575.544 1572.702 1570.748 1566.837 1563.807 1559.875 1556.327 1553.01 1549.366 1546.405 1543.405 1538.156 1533.854 1528.516 1522.916 1518.513 1513.301 1509.866 1507.181 1504.841 1502.713 1500.338 1496.624 1492.682 1488.777 1484.686 1478.959 1472.265 1465.317 1458.75 1453.815 1453.029 1449.695 1446.407 1444.076 1441.715 1438.97 1436.866 1434.13 1432.248 1429.54 1426.715 1428.139 1427.886 1421.049 1418.35 1417.939 1418.023 1417.981 1417.729 1416.406 1414.528 1411.303 1410.656 1409.702 1407.124 1406.32 1402.328 1397.172 1395.877 1395.005 1394.376 1395.01 1397.303 1399.488 1401.007 1401.39 1401.301 1398.849 1396.384 1395.175 1394.861 1394.343 1393.554 1394.969 1394.811 1394.797 1395.022 1395.018 1395.018 1396.083 -9999 -9999 -9999 -9999 -9999 -9999 -9999 -9999 -9999 -9999 -9999 -9999 -9999 -9999 -9999 -9999 -9999 1400.707 1400.917 1399.299 1398.779 1398.727 1397.036 1394.412 1392.405 1391.884 1390.708 1389.531 1388.39 1387.42 1386.261 1384.917 1384.217 1384.012 1383.889 1383.889 1383.991 1384.081 1383.889 1384.739 1385.891 1387.357 1389.307 1399.478 1401.513 -9999 -9999 -9999 -9999
1808.125 1807.264 1806.213 1805.345 1804.321 1803.271 1802.218 1801.332 1800.45 1799.993 1799.635 1798.556 1797.917 1797.501 1796.713 1796.576 1795.868 1795.268 1794.623 1794.638 1793.908 1792.957 1792.228 1791.424 1791.62 1789.952 1789.48 1789.12 1788.975 1789.348 1789.326 1789.114 1789.118 1788.028 1786.955 1785.465 1784.561 1781.656 1778.969 1776.843 1775.57 1774.108 1771.223 1766.266 1757.902 1747.304 1726.553 1729.819 1738.196 1743.491 1747.78 1748.765 1749.413 1749.682 1749.111 1747.714 1745.32 1742.703 1740.463 1738.947 1737.301 1736.302 1734.936 1733.403 1732.757 1730.413 1729.377 1727.031 1725.463 1724.595 1722.717 1721.525 1721.186 1719.614 1718.427 1717.125 1716.624 1715.268 1714.539 1713.672 1711.796 1710.759 1709.22 1707.702 1705.934 1703.098 1702.103 1700.453 1698.174 1695.616 1693.443 1691.279 1688.083 1678.13 1671.678 1669.276 1668.968 1667.488 1659.921 1657.065 1653.616 1651.479 1647.505 1644.983 1642.788 1639.987 1640.762 1640.057 1638.764 1637.171 1635.869 1636.009 1634.683 1633.545 1631.496 1630.251 1629.575 1627.435 1626.054 1623.635 1618.727 1610.863 1602.174 1601.329 1603.297 1600.424 1597.383 1593.954 1597.87 1599.124 1591.462 1586.249 1585.185 1583.988 1585.674 1588.465 1589.837 1583.669 1586.534 1587.879 1584.427 1584.722 1584.863 1582.941 1586.105 1596.679 1604.005 1611.531 1616.67 1620.108 1623.608 1625.428 1628.078 1631.651 1634.966 1636.731 1640.979 1643.206 1645.78 1649.246 1653.913 1656.987 1660.6 1663.667 1673.524 1679.429 1685.219 1689.472 1694.2 1697.443 1700.602 1703.505 1706.588 1710.324 1714.504 1717.454 1720.104 1721.963 1724.423 1727.065 1731.139 1734.239 1737.309 1740.674 1743.717 1748.256 1752.824 1756.723 1760.518 1764.131 1767.921 1772.24 1775.852 1778.981 1780.478 1780.599 1779.844 1778.673 1777.927 1775.959 1774.698 1772.893 1771.667 1770.348 1769.136 1767.849 1766.307 1765.33 1763.926 1762.922 1762.17 1760.86 1759.681 1758.981 1757.748 1756.939 1756.583 1755.184 1753.902 1752.761 1751.651 1749.844 1748.371 1746.717 1745.331 1743.293 1741.329 1739.046 1736.598 1734.215 1731.334 1728.838 1726.173 1723.989 1722.226 1719.739 1717.624 1714.992 1711.688 1706.901 1702.127 1693.194 1682.75 1669.76 1659.354 1652.851 1647.685 1641.347 1641.375 1648.144 1650.59 1643.484 1647.088 1643.489 1639.666 1636.112 1631.198 1627.903 1624.013 1620.769 1613.849 1606.755 1602.092 1597.06 1593.246 1590.846 1588.942 1587.876 1585.465 1582.374 1578.725 1576.366 1573.933 1571.442 1568.048 1564.675 1561.154 1556.465 1553.105 1550.061 1546.709 1543.175 1539.823 1534.829 1529.648 1525.168 1519.557 1513.671 1510.557 1507.524 1505.572 1502.989 1500.215 1496.96 1493.694 1490.231 1483.581 1475.799 1468.723 1462.579 1462.323 1460.382 1455.785 1452.421 1448.115 1445.489 1442.749 1440.038 1437.419 1434.716 1433.071 1431.566 1426.715 1428.152 1428.813 1423.352 1420.376 1420.216 1419.77 1419.066 1418.62 1416.301 1414.799 1413.539 1412.708 1410.924 1408.963 1407.117 1404.395 1399.945 1398.161 1395.29 1395.023 1396.311 1398.845 1401.918 1403.521 1403.763 1403.092 1401.1 1398.176 1396.078 1395.965 1395.465 1394.482 1394.606 1395.444 1395.668 1395.614 1395.83 1395.406 1395.863 -9999 -9999 -9999 -9999 -9999 -9999 -9999 -9999 -9999 -9999 -9999 -9999 -9999 -9999 -9999 -9999 -9999 -9999 1400.985 1401.616 1399.335 1398.552 1397.818 1396.228 1393.908 1391.962 1391.073 1390.741 1389.311 1388.12 1387.047 1386.051 1384.947 1385.365 1384.37 1383.889 1383.889 1383.889 1383.991 1384.608 1385.424 1386.81 1388.696 1398.401 -9999 -9999 -9999 -9999 -9999
1808.676 1807.49 1806.447 1805.609 1804.547 1803.666 1802.489 1801.314 1800.586 1800.258 1799.825 1799.166 1798.4 1797.986 1797.277 1796.661 1796.175 1795.475 1795.153 1794.702 1794.123 1793.612 1792.694 1791.424 1792.353 1791.442 1790.493 1790.449 1790.506 1790.78 1790.676 1790.439 1790.144 1789.057 1788.217 1786.895 1785.374 1783.027 1781.039 1778.713 1776.666 1774.637 1772.566 1769.656 1762.365 1750.417 1734.728 1724.761 1726.168 1733.26 1735.955 1738.611 1742.098 1744.817 1745.833 1745.284 1743.404 1740.565 1738.289 1737.257 1734.754 1734.022 1732.624 1731.054 1729.855 1728.176 1726.452 1725.257 1723.664 1721.645 1720.413 1718.857 1717.435 1717.057 1716.158 1715.105 1714.136 1713.151 1712.477 1710.757 1709.667 1707.81 1706.455 1705.358 1703.103 1701.44 1699.78 1697.842 1696.769 1694.007 1691.547 1687.505 1686.026 1677.793 1671.7 1668.627 1669 1668.62 1662.826 1654.487 1650.595 1645.485 1644.72 1642.012 1639.216 1637.698 1637.125 1638.649 1638.036 1635.432 1631.826 1631.23 1631.064 1630.229 1629.57 1629.049 1628.272 1625.607 1617.677 1612.5 1610.365 1606.884 1604.283 1603.366 1598.11 1596.284 1595.754 1595.391 1599.781 1604.099 1599.381 1596.829 1593.319 1595.646 1599.966 1592.22 1590.66 1588.591 1587.328 1585.689 1584.945 1587.433 1585.935 1583.2 1590.32 1598.769 1607.808 1613.722 1618.046 1622.332 1624.731 1627.314 1630.831 1634.517 1637.872 1641.184 1644.309 1646.037 1649.076 1653.885 1658.572 1663.146 1668.765 1670.464 1673.07 1681.813 1687.977 1693.1 1696.932 1701.023 1703.953 1707.738 1710.691 1713.83 1717.311 1720.011 1722.193 1724.496 1726.385 1729.367 1732.841 1736.799 1740.17 1743.775 1747.263 1751.476 1755.288 1759.046 1762.948 1766.637 1770.559 1774.593 1778.138 1781.093 1782.673 1782.602 1781.161 1779.338 1778.101 1775.693 1774.638 1772.702 1772.006 1769.719 1768.676 1767.296 1765.962 1764.9 1763.288 1762.266 1761.388 1760.322 1759.099 1758.336 1757.462 1756.508 1755.925 1754.58 1753.336 1751.977 1750.911 1749.243 1747.852 1746.276 1744.787 1743.081 1741.53 1739.182 1737.166 1734.53 1732.028 1729.275 1726.378 1724.202 1722.703 1720.202 1717.811 1715.121 1711.439 1706.974 1701.909 1693.793 1684.93 1674.058 1662.254 1654.347 1648.928 1641.347 1648.884 1654.109 1649.732 1650.178 1650.533 1646.644 1642.771 1638.505 1635.203 1630.807 1625.904 1621.571 1616.074 1609.164 1603.547 1597.847 1594.964 1591.804 1589.773 1588.25 1586.663 1583.669 1580.504 1577.223 1574.975 1571.122 1569.067 1565.02 1561.952 1557.166 1553.836 1550.341 1547.126 1544.946 1538.91 1535.438 1530.29 1525.571 1520.694 1515.722 1511.788 1508.606 1505.842 1503.297 1500.402 1495.673 1489.756 1486.656 1480.197 1473.335 1471.269 1471.536 1468.203 1464.042 1459.211 1454.422 1450.229 1446.911 1444.147 1441.336 1438.868 1436.265 1434.574 1433.094 1428.466 1428.27 1429.109 1425.052 1422.104 1420.625 1420.24 1419.942 1419.006 1417.12 1416.109 1416.078 1414.38 1412.689 1410.491 1408.53 1405.524 1401.867 1398.948 1395.674 1395.913 1398.381 1401.168 1404.177 1405.622 1406.051 1404.86 1402.984 1400.656 1397.916 1396.969 1396.447 1395.863 1395.931 1396.009 1396.774 1397.194 1396.903 1396.693 1396.754 -9999 -9999 -9999 -9999 -9999 -9999 -9999 -9999 -9999 -9999 -9999 -9999 -9999 -9999 -9999 -9999 -9999 -9999 -9999 1401.214 1401.399 1398.907 1397.8 1396.648 1396.015 1392.969 1391.652 1390.962 1390.777 1389.561 1388.098 1387.272 1387.349 1386.692 1384.789 1383.889 1383.889 1383.889 1383.949 1383.889 1384.914 1385.04 1387.307 1399.215 -9999 -9999 -9999 -9999 -9999
1809.5 1808.086 1806.926 1805.861 1804.881 1803.86 1802.765 1801.858 1801.198 1800.628 1799.994 1799.45 1798.845 1798.107 1797.728 1796.984 1796.423 1795.855 1795.515 1795.132 1794.295 1793.764 1793.087 1791.424 1793.082 1792.578 1791.862 1791.6 1791.679 1791.858 1791.82 1791.772 1791.077 1789.932 1789.141 1787.815 1787.105 1784.731 1782.321 1780.772 1777.871 1775.723 1773.823 1771.544 1766.767 1758.007 1745.159 1730.608 1719.936 1718.582 1723.611 1729.305 1732.49 1738.081 1741.909 1742.179 1740.724 1738.463 1735.871 1733.777 1732.94 1731.597 1730.32 1729.061 1727.377 1725.622 1724.522 1722.54 1721.051 1718.922 1717.399 1716.639 1715.541 1714.534 1713.527 1712.8 1712.432 1710.771 1709.45 1708.28 1706.561 1705.227 1704.218 1703.096 1700.958 1699.441 1697.968 1695.571 1694.117 1692.114 1690.377 1687.356 1684.084 1678.813 1671.499 1667.231 1667.92 1667.968 1662.531 1654.105 1648.331 1644.44 1642.714 1640.071 1634.544 1636.198 1635.063 1637.459 1637.203 1634.515 1628.873 1625.381 1622.421 1620.901 1625.892 1630.049 1623.091 1620.922 1617.591 1610.385 1606.98 1604.367 1604.475 1598.533 1598.871 1598.091 1599.735 1601.483 1606.758 1609.545 1605.313 1604.817 1606.354 1607.515 1605.579 1600.627 1597.69 1599.033 1592.916 1588.304 1589.689 1591.236 1587.417 1587.698 1593.014 1601.856 1611.195 1616.303 1620.199 1623.641 1626.852 1630.083 1634.289 1638.722 1641.893 1644.667 1646.888 1649.706 1653.345 1658.687 1666.063 1672.696 1677.189 1679.372 1682.963 1688.785 1690.891 1694.609 1699.492 1703.872 1707.303 1710.855 1714.251 1717.694 1719.499 1721.933 1724.208 1726.536 1729.073 1732.266 1736.114 1740.721 1744.336 1747.161 1750.112 1754.005 1757.599 1761.625 1765.508 1768.888 1772.766 1776.653 1780.095 1783.047 1784.604 1784.173 1782.445 1780.518 1778.236 1775.877 1774.23 1772.62 1771.135 1769.244 1768.109 1766.684 1765.311 1764.318 1762.86 1762.141 1761.029 1759.612 1758.648 1757.64 1756.817 1755.822 1755.145 1753.828 1752.392 1751.14 1749.757 1748.532 1747.416 1745.851 1744.333 1742.803 1741.089 1739.122 1737.26 1734.591 1732.547 1729.683 1726.738 1724.428 1722.994 1720.204 1717.976 1715.226 1711.859 1708.845 1703.458 1697.401 1689.994 1678.851 1665.936 1656.171 1650.8 1647.198 1655.216 1659.28 1654.06 1657.003 1653.569 1649.698 1645.457 1642.069 1638.062 1633.652 1629.078 1624.189 1618.727 1611.414 1605.193 1600.402 1596.995 1593.755 1591.341 1589.707 1587.976 1585.238 1581.861 1578.534 1575.411 1572.803 1568.926 1565.393 1561.189 1557.431 1554.646 1550.953 1548.381 1543.921 1538.902 1534.106 1528.74 1524.323 1518.864 1513.526 1511.165 1508.476 1505.002 1499.883 1495.946 1494.341 1492.499 1489.086 1484.653 1482.348 1479.767 1476.118 1471.513 1466.841 1461.747 1455.797 1451.451 1448.248 1445.586 1442.648 1440.506 1437.95 1435.371 1434.307 1430.15 1428.277 1429.228 1426.104 1423.477 1422.268 1421.441 1420.522 1419.654 1418.323 1417.933 1418.114 1416.205 1413.979 1412.446 1409.562 1406.623 1402.955 1399.841 1396.265 1397.344 1400.119 1403.651 1405.889 1407.474 1407.688 1406.429 1404.646 1402.642 1399.461 1397.662 1397.034 1396.582 1396.969 1396.811 1397.824 1398.31 1398.419 1398.15 -9999 -9999 -9999 -9999 -9999 -9999 -9999 -9999 -9999 -9999 -9999 -9999 -9999 -9999 -9999 -9999 -9999 -9999 -9999 -9999 -9999 1400.779 1400.177 1398.234 1397.311 1396.873 1395.999 1391.791 1391.299 1390.997 1390.435 1389.31 1388.956 1388.613 1388.113 1385.302 1383.935 1383.889 1383.889 1383.889 1384.022 1384.255 1384.517 1386.646 1398.594 -9999 -9999 -9999 -9999 -9999
1810.614 1808.765 1807.582 1806.346 1805.149 1804.829 1803.648 1802.358 1801.39 1800.806 1800.389 1799.72 1799.37 1798.405 1798.073 1797.4 1796.955 1796.352 1795.792 1795.355 1794.689 1793.854 1793.246 1792.965 1793.755 1793.634 1793.265 1792.762 1792.693 1792.905 1792.43 1791.936 1791.547 1790.839 1789.987 1789.024 1788.358 1785.938 1784.928 1781.95 1779.534 1776.794 1774.897 1773.381 1770.389 1762.091 1754.92 1746.45 1735.261 1728.403 1718.519 1715.74 1724.453 1730.413 1735.378 1737.682 1736.773 1735.501 1731.508 1728.603 1728.178 1728.45 1727.836 1726.541 1725.361 1723.745 1721.622 1719.758 1717.497 1716.486 1715.844 1714.036 1712.529 1711.568 1710.873 1710.035 1709.01 1708.119 1706.917 1705.413 1704.416 1702.662 1701.166 1700.068 1698.266 1697.317 1695.295 1693.73 1692.327 1690.207 1688.42 1685.514 1682.672 1679.293 1670.424 1664.979 1664.927 1666.223 1660.156 1654.608 1648.281 1642.475 1640.951 1639.68 1635.99 1633.004 1632.813 1631.137 1631.584 1632.772 1629.886 1626.288 1623.46 1620.801 1622.417 1624.54 1615.936 1614.548 1612.479 1608.975 1609.688 1604.779 1603.878 1600.601 1600.17 1601.828 1603.792 1610.698 1615.265 1619.636 1615.228 1613.311 1612.025 1614.312 1610.796 1609.946 1607.807 1604.896 1602.677 1601.919 1602.436 1602.351 1591.537 1588.104 1589.166 1603.357 1614.43 1619.278 1622.187 1626.216 1630.416 1634.262 1637.557 1642.042 1645.657 1648.949 1651.727 1655.333 1659.815 1666.415 1672.043 1679.845 1684.65 1688.388 1689.894 1693.389 1696.518 1699.534 1703.235 1707.278 1710.175 1714.111 1717.69 1719.928 1722.653 1724.766 1727.077 1730.246 1733.537 1736.951 1740.687 1743.537 1747.347 1750.689 1753.758 1757.083 1760.703 1764.585 1767.658 1771.264 1774.675 1777.991 1781.544 1784.219 1785.964 1785.717 1784.208 1782.189 1779.434 1776.494 1774.073 1772.348 1770.493 1768.969 1767.543 1766.149 1765.038 1764.271 1762.441 1761.924 1760.463 1759.183 1757.982 1757.106 1755.907 1755.082 1754.4 1753.216 1751.409 1750.316 1748.806 1747.416 1746.589 1745.339 1743.973 1741.944 1740.355 1739.017 1737.12 1734.582 1732.376 1729.467 1726.575 1724.275 1722.242 1720.166 1717.969 1715.53 1712.258 1708.773 1703.393 1697.613 1688.195 1677.352 1665.709 1655.904 1651.711 1655.843 1663.266 1660.409 1660.372 1659.818 1656.241 1652.295 1649.123 1644.21 1640.398 1636.356 1630.941 1626.267 1620.526 1613.767 1607.339 1602.972 1598.714 1595.62 1593.154 1590.734 1589.593 1586.312 1582.95 1579.158 1575.667 1572.935 1569.831 1565.749 1561.353 1558.168 1554.873 1551.942 1547.451 1541.787 1535.728 1530.607 1526.668 1523.532 1520.534 1517.395 1512.702 1508.943 1505.687 1503.32 1500.585 1498.353 1495.115 1492.475 1489.146 1485.84 1482.151 1477.678 1473.035 1468.335 1462.777 1457.146 1453.228 1450.241 1447.625 1444.469 1441.853 1439.469 1437.001 1435.544 1432.103 1428.477 1429.516 1427.243 1424.361 1423.211 1422.621 1421.641 1420.605 1419.218 1418.093 1418.849 1417.206 1415.025 1414.027 1411.207 1407.876 1403.919 1399.488 1397.557 1398.995 1402.117 1405.592 1407.499 1408.862 1409.426 1408.264 1406.924 1404.202 1400.984 1398.818 1398.245 1397.685 1397.942 1398.11 1398.313 1399.096 1399.095 -9999 -9999 -9999 -9999 -9999 -9999 -9999 -9999 -9999 -9999 -9999 -9999 -9999 -9999 -9999 -9999 -9999 -9999 -9999 -9999 -9999 -9999 -9999 1400.018 1399.727 1397.797 1397.34 1397.204 1395.491 1392.07 1391.646 1391.203 1390.87 1390.278 1390.231 1388.592 1386.286 1384.333 1384.136 1384.023 1383.889 1383.889 1383.889 1384.124 1385.976 1398.276 -9999 -9999 -9999 -9999 -9999
1811.355 1809.167 1808.059 1806.224 1805.718 1804.666 1803.343 1802.47 1801.655 1801.471 1801.099 1800.204 1799.622 1799.136 1798.422 1797.857 1797.265 1796.299 1796.155 1795.914 1795.477 1794.935 1794.639 1794.464 1794.208 1794.249 1793.898 1793.295 1793.438 1793.572 1792.883 1792.46 1792.246 1791.064 1790.909 1790.135 1789.568 1788.493 1786.137 1784.275 1781 1779.038 1776.375 1774.026 1771.457 1768.528 1762.925 1758.993 1750.635 1742.7 1733.831 1718.843 1709.335 1724.515 1727.967 1730.767 1730.194 1722.921 1717.633 1718.238 1718.48 1718.431 1721.865 1723.88 1722.635 1720.906 1718.701 1716.899 1715.176 1713.265 1712.746 1710.901 1709.538 1708.859 1708.075 1706.928 1706.442 1706.049 1704.451 1703.024 1702.003 1700.227 1699.198 1697.846 1696.72 1694.816 1693.328 1692.039 1689.144 1688.085 1686.628 1683.616 1680.296 1677.845 1669.486 1662.969 1663.353 1663.206 1658.604 1652.441 1646.153 1640.663 1638.037 1637.168 1628.122 1625.885 1624.939 1628.418 1630.805 1624.54 1623.644 1621.6 1621.642 1620.252 1619.846 1617.933 1614.75 1609.214 1608.913 1611.393 1607.642 1605.538 1600.601 1602.303 1604.725 1605.088 1608.114 1614.936 1622.038 1628.194 1629.238 1626.115 1623.645 1622.324 1618.537 1616.79 1615.267 1615.856 1615.095 1611.897 1609.78 1606.411 1599.642 1593.671 1588.531 1592.82 1613.129 1620.813 1624.667 1628.437 1632.676 1636.526 1640.877 1644.492 1649.602 1654.207 1658.17 1664.378 1669.23 1673.168 1678.804 1687.626 1690.655 1694.766 1697.201 1697.308 1701.164 1704.204 1706.342 1709.716 1713.527 1717.004 1720.109 1723.248 1725.653 1727.937 1731.073 1734.24 1738.988 1741.248 1744.216 1747.875 1751.107 1754.253 1757.481 1760.232 1763.118 1766.324 1770 1773.189 1776.262 1779.361 1782.612 1785.506 1787.271 1787.929 1786.333 1784.076 1781.11 1777.953 1774.996 1772.402 1770.395 1768.356 1766.978 1765.982 1764.918 1763.609 1762.214 1761.298 1760.207 1758.78 1757.472 1756.658 1755.496 1754.323 1753.697 1752.105 1750.692 1749.336 1747.574 1745.804 1744.67 1743.638 1742.756 1741.063 1739.455 1738.157 1736.056 1734.114 1732.21 1728.918 1725.776 1722.752 1720.167 1717.733 1716.22 1714.482 1711.519 1705.231 1698.683 1690.834 1681.704 1669.958 1659.199 1657.263 1659.388 1666.213 1670.045 1664.514 1664.659 1662.573 1658.732 1655.308 1651.576 1646.939 1643.485 1637.965 1633.127 1628.948 1623.904 1616.804 1609.299 1604.223 1600.496 1597.681 1594.86 1592.72 1590.023 1587.369 1583.261 1579.46 1576.964 1573.093 1569.68 1564.981 1561.27 1557.651 1554.509 1550.151 1546.369 1539.98 1539.996 1536.129 1532.111 1527.623 1523.701 1520.461 1516.436 1511.848 1508.208 1505.54 1502.954 1500.089 1496.9 1493.905 1490.395 1487.402 1483.172 1478.589 1474.03 1468.373 1463.158 1458.616 1455.506 1451.995 1448.418 1445.486 1442.716 1440.899 1437.964 1436.252 1433.995 1428.477 1429.813 1428.809 1426.179 1425.477 1423.952 1423.108 1421.444 1419.223 1418.285 1418.796 1417.27 1415.219 1414.908 1412.821 1408.956 1405.149 1400.617 1398.924 1400.956 1403.997 1407.673 1409.813 1410.655 1410.284 1409.69 1408.73 1405.821 1402.695 1400.123 1399.165 1399.012 1399.185 1399.038 1398.89 1399.238 -9999 -9999 -9999 -9999 -9999 -9999 -9999 -9999 -9999 -9999 -9999 -9999 -9999 -9999 -9999 -9999 -9999 -9999 -9999 -9999 -9999 -9999 -9999 -9999 -9999 1399.728 1399.401 1397.939 1397.833 1397.021 1395.204 1391.754 1391.886 1392.367 1391.258 1390.307 1389.155 1387.189 1384.978 1384.535 1384.5 1383.889 1384.102 1384.258 1384.013 1385.487 1398.038 -9999 -9999 -9999 -9999 -9999
